ply
format ascii 1.0
element vertex 1072
property float x
property float y
property float z
end_header
-939.984758592 -900.497466172 5846.58211509
-939.988904123 -896.113941271 5846.60789975
-939.99449737 -891.731751056 5846.64268901
-939.998478836 -887.347987122 5846.66745321
-939.99929157 -882.961209565 5846.67250831
-939.99700121 -878.571524102 5846.65826257
-939.996247443 -874.18328903 5846.65357424
-940.007385138 -869.806064383 5846.72284924
-940.043209221 -865.451463303 5846.94567035
-940.09438977 -861.110594062 5847.26400666
-940.122887842 -856.748576147 5847.44126094
-940.097981298 -852.337873013 5847.28634549
-940.032304345 -847.89062828 5846.87784345
-940.002592352 -843.476268472 5846.69303874
-940.055874884 -839.136270686 5847.02444912
-940.155615473 -834.837029206 5847.64482252
-940.240595735 -830.523818685 5848.17338862
-940.277108343 -826.167229123 5848.40049226
-940.257914329 -821.761612533 5848.28110801
-940.196677487 -817.319626994 5847.90022287
-940.126374802 -812.870374429 5847.46294937
-940.067168005 -808.431320305 5847.09469085
-940.024039477 -804.006570701 5846.82643705
-939.996891 -799.595816929 5846.65757708
-939.982902158 -795.196449236 5846.57056831
-939.977446045 -790.80439073 5846.53663201
-939.97600177 -786.415739597 5846.5276488
-939.976003581 -782.028305041 5846.52766006
-939.976276875 -777.641095067 5846.52935992
-939.976347522 -773.253715837 5846.52979934
-939.976174714 -768.866136811 5846.52872449
-939.975860849 -764.478444676 5846.52677229
-939.975594352 -760.090793775 5846.52511472
-939.975573435 -755.703342798 5846.52498461
-939.975582415 -751.315915913 5846.52504047
-939.975570183 -746.928472088 5846.52496439
-939.975513437 -742.540993214 5846.52461143
-939.975537546 -738.153578364 5846.52476139
-939.975580919 -733.766178326 5846.52503116
-939.975633917 -729.378785353 5846.5253608
-939.975676138 -724.991383572 5846.52562342
-939.97571997 -720.603982632 5846.52589604
-939.975712404 -716.216542121 5846.52584899
-939.975717812 -711.829111505 5846.52588262
-939.975666464 -707.441638123 5846.52556325
-939.975617335 -703.05416688 5846.52525767
-939.975567284 -698.66669541 5846.52494636
-939.975575023 -694.279267092 5846.52499449
-939.975540547 -689.891807718 5846.52478006
-939.975537431 -685.504371536 5846.52476067
-939.975586173 -681.116972961 5846.52506385
-939.975732492 -676.72964418 5846.52597393
-939.975874542 -672.34231098 5846.52685746
-939.975850937 -667.954858738 5846.52671064
-939.975721582 -663.567332062 5846.52590607
-939.975582862 -659.179800028 5846.52504325
-939.975567207 -654.792355015 5846.52494588
-939.975623268 -650.404959773 5846.52529457
-935.583840379 -1479.62316431 5846.49812005
-935.584725627 -1475.23714627 5846.50365199
-935.585234209 -1470.85052777 5846.50683014
-935.586340286 -1466.46484103 5846.51374206
-935.586440391 -1462.07757184 5846.51436762
-935.584488325 -1457.68710433 5846.50216908
-935.582882367 -1453.29719276 5846.4921334
-935.583637784 -1448.91095324 5846.49685402
-935.584406291 -1444.52472685 5846.50165645
-935.58631902 -1440.14025454 5846.51360917
-935.586783848 -1435.75354234 5846.5165139
-935.586219323 -1431.36525096 5846.51298615
-935.584562071 -1426.97529822 5846.50262993
-935.583443496 -1422.5861801 5846.49563991
-935.584167929 -1418.19986619 5846.50016692
-935.585967059 -1413.81516951 5846.51140975
-935.588887039 -1409.43214449 5846.52965681
-935.589038466 -1405.04493433 5846.53060309
-935.587746009 -1400.65556113 5846.52252648
-935.585138697 -1396.26423777 5846.50623328
-935.583956976 -1391.87505972 5846.49884867
-935.583669764 -1387.48721933 5846.49705387
-935.585724738 -1383.10284415 5846.50989548
-935.60707127 -1378.74687849 5846.64329074
-935.710771719 -1374.51168635 5847.2913187
-935.873827956 -1370.3624339 5848.31026317
-935.996041969 -1366.15204005 5849.07398308
-936.028011269 -1361.80920465 5849.27376041
-936.011028472 -1357.39507951 5849.16763428
-935.981203989 -1352.96255096 5848.98125999
-935.952877644 -1348.53246068 5848.8042476
-935.908110571 -1344.07902516 5848.5244965
-935.843849725 -1339.59810548 5848.1229281
-935.769777266 -1335.10378984 5847.66004655
-935.699717921 -1330.61587579 5847.22224311
-935.645337232 -1326.1508412 5846.88241616
-935.61149154 -1321.71532593 5846.67091318
-935.594967748 -1317.30451709 5846.56765539
-935.588535358 -1312.90802446 5846.52745915
-935.58618741 -1308.51730468 5846.51278673
-935.584941505 -1304.12814308 5846.50500102
-935.584100961 -1299.73955631 5846.49974843
-935.583516511 -1295.35133199 5846.49609618
-935.583110495 -1290.96335937 5846.49355897
-935.582844498 -1286.5755831 5846.49189675
-935.582680502 -1282.18794912 5846.49087194
-935.582666827 -1277.80052197 5846.49078648
-935.582760705 -1273.41324135 5846.49137313
-935.58274898 -1269.02581661 5846.49129985
-935.582673528 -1264.63830583 5846.49082835
-935.582486845 -1260.25064594 5846.48966176
-935.582309416 -1255.86300021 5846.488553
-935.582185006 -1251.47542707 5846.48777556
-935.582145822 -1247.0879687 5846.4875307
-935.58243046 -1242.70094082 5846.48930941
-935.583214203 -1238.31457087 5846.49420705
-935.584207947 -1233.92847054 5846.50041699
-935.585159316 -1229.5423052 5846.50636213
-935.585697168 -1225.15558943 5846.50972319
-935.585805366 -1220.768308 5846.51039932
-935.585341707 -1216.38028207 5846.5075019
-935.584505253 -1211.99177755 5846.50227487
-935.583884609 -1207.60355943 5846.49839644
-935.584497806 -1203.21693393 5846.50222834
-935.587344688 -1198.83316485 5846.5200186
-935.593265156 -1194.45329306 5846.55701583
-935.604102115 -1190.07961947 5846.62473638
-935.621478237 -1185.71413133 5846.73332042
-935.647268194 -1181.35910362 5846.89448281
-935.681181453 -1177.01405252 5847.10640803
-935.715430434 -1172.66910407 5847.32043118
-935.73150561 -1168.30114363 5847.42088555
-935.714410495 -1163.89177343 5847.31405755
-935.672728529 -1159.45209642 5847.05358539
-935.629758613 -1155.01122041 5846.78506479
-935.605633025 -1150.59392188 5846.6343031
-935.598031691 -1146.19709342 5846.58680208
-935.59451695 -1141.80532356 5846.56483833
-935.590892808 -1137.41345366 5846.54219094
-935.591808773 -1133.02711594 5846.54791484
-935.597956878 -1128.64708136 5846.58633457
-935.604019982 -1124.26688698 5846.62422314
-935.603780995 -1119.87909239 5846.6227297
-935.599006707 -1115.48589274 5846.592895
-935.599946846 -1111.0995242 5846.59876996
-935.61164773 -1106.72587563 5846.67188922
-935.626338775 -1102.35564032 5846.7636941
-935.631518 -1097.974105 5846.79605927
-935.621559372 -1093.57482765 5846.73382743
-935.600913216 -1089.16320201 5846.60480884
-935.595968937 -1084.76997544 5846.57391185
-935.644638818 -1080.43870636 5846.87805175
-935.791376563 -1076.21976511 5847.79502136
-936.005218874 -1072.07630745 5849.13132989
-936.180344664 -1067.88668083 5850.22569745
-936.246362227 -1063.57146526 5850.63824365
-936.194396979 -1059.12215588 5850.31351089
-936.07228981 -1054.59431085 5849.55045866
-935.93257172 -1050.04785289 5848.67735513
-935.806789494 -1045.51827502 5847.89133734
-935.712281279 -1041.02467069 5847.30075199
-935.650314109 -1036.56800362 5846.91351685
-935.614423282 -1032.14068434 5846.68923375
-935.596408732 -1027.73333841 5846.57666015
-935.588167024 -1023.33685087 5846.52515742
-935.584702469 -1018.94564343 5846.50350728
-935.583233601 -1014.55663263 5846.49432827
-935.582677459 -1010.1686211 5846.49085292
-935.582444664 -1005.78096238 5846.48939817
-935.58236434 -1001.39346905 5846.48889622
-935.582422628 -997.006124186 5846.48926047
-935.582552963 -992.618855213 5846.49007494
-935.582597808 -988.231494716 5846.49035518
-935.582514115 -983.84399863 5846.48983218
-935.582301076 -979.456367917 5846.48850088
-935.582064499 -975.068714672 5846.48702251
-935.581940873 -970.681180833 5846.48624997
-935.581854629 -966.293686762 5846.48571102
-935.581977984 -961.906408998 5846.48648187
-935.582176589 -957.519207091 5846.48772296
-935.582335201 -953.131962578 5846.48871414
-935.582515549 -948.744738619 5846.48984114
-935.58264267 -944.357459242 5846.49063552
-935.582758137 -939.970166965 5846.49135708
-935.582949161 -935.582949161 5846.49255079
-935.583032913 -931.195622797 5846.49307417
-935.583156861 -926.808335466 5846.49384872
-935.583294202 -922.421060178 5846.49470697
-935.583549425 -918.033899272 5846.49630187
-935.584023218 -913.646949417 5846.49926261
-935.584928695 -909.260414657 5846.50492097
-935.587138184 -904.87513261 5846.51872815
-935.590727135 -900.49115755 5846.54115564
-935.595151689 -896.107949166 5846.56880484
-935.600406153 -891.725490275 5846.60164018
-935.604487404 -887.341869409 5846.62714407
-935.605379182 -882.955200277 5846.63271683
-935.603752292 -878.566157659 5846.62255033
-935.60322476 -874.178157481 5846.61925376
-935.61331762 -869.80003558 5846.68232442
-935.647167632 -865.443793625 5846.8938544
-935.69671893 -861.101683751 5847.2035023
-935.724306138 -856.738999052 5847.37589579
-935.699113925 -852.327978859 5847.21846871
-935.639037832 -847.885582817 5846.84305098
-935.645528195 -843.503761263 5846.8836095
-935.76361313 -839.221960323 5847.62152663
-935.884524994 -834.941573889 5848.37710936
-935.933448447 -830.596167152 5848.68283383
-935.912576088 -826.188688426 5848.55240169
-935.847403648 -821.742506747 5848.14513669
-935.765523314 -817.282343918 5847.63346345
-935.69319168 -812.831243944 5847.18146038
-935.641661875 -808.398795246 5846.85944872
-935.609319241 -803.983317672 5846.6573384
-935.592464649 -799.581379919 5846.55201343
-935.585301766 -795.187837579 5846.50725231
-935.582953273 -790.798431767 5846.49257649
-935.582507543 -786.410647362 5846.4897911
-935.582596908 -782.023314407 5846.49034955
-935.582666404 -777.6359641 5846.49078383
-935.58249706 -773.248415742 5846.4897256
-935.582307797 -768.860852602 5846.48854288
-935.582118201 -764.473290966 5846.48735809
-935.582067902 -760.085844276 5846.48704378
-935.582101334 -755.698465688 5846.48725269
-935.582128622 -751.311081855 5846.48742321
-935.582131033 -746.923677904 5846.48743828
-935.582083554 -742.536234335 5846.48714158
-935.582041797 -738.148795726 5846.48688064
-935.58204542 -733.761393099 5846.48690328
-935.582068493 -729.374005602 5846.48704747
-935.582113604 -724.986634965 5846.48732937
-935.582132041 -720.59924336 5846.48744458
-935.582185509 -716.2118784 5846.4877787
-935.582261786 -711.824530292 5846.48825536
-935.582299781 -707.437152522 5846.48849279
-935.582357043 -703.049788874 5846.48885063
-935.582447122 -698.662449195 5846.48941353
-935.58247884 -694.275065363 5846.48961174
-935.582390441 -689.887592661 5846.48905933
-935.582287607 -685.500110211 5846.48841672
-935.582208595 -681.112646069 5846.48792297
-935.582240175 -676.725262661 5846.48812031
-935.582268941 -672.337876935 5846.48830007
-935.582240914 -667.950450392 5846.48812493
-935.582266041 -663.563061811 5846.48828195
-935.582275343 -659.175661845 5846.48834008
-935.582188897 -654.78819478 5846.48779987
-935.582214055 -650.400806112 5846.48795709
-931.187540725 -1479.60904531 5846.44233104
-931.188340012 -1475.22293953 5846.44734934
-931.188801755 -1470.83629307 5846.45024838
-931.190294627 -1466.45126608 5846.45962136
-931.191153791 -1462.06523005 5846.4650156
-931.189528079 -1457.67529611 5846.4548086
-931.18747037 -1453.28470329 5846.44188931
-931.187287057 -1448.89704635 5846.44073839
-931.187739208 -1444.51037691 5846.4435772
-931.189516095 -1440.12575198 5846.45473335
-931.190219391 -1435.739455 5846.45914898
-931.189218676 -1431.35053212 5846.45286602
-931.187477563 -1426.96048408 5846.44193448
-931.186755959 -1422.57200995 5846.4374039
-931.187405212 -1418.18563041 5846.44148022
-931.18861918 -1413.80010215 5846.4491021
-931.190443926 -1409.4154869 5846.46055873
-931.190040275 -1405.02749214 5846.45802441
-931.18927592 -1400.63895863 5846.45322542
-931.187602039 -1396.24906855 5846.44271599
-931.186594946 -1391.86019091 5846.43639298
-931.185973337 -1387.47189712 5846.43249022
-931.188446249 -1383.08820547 5846.44801635
-931.207079349 -1378.728417 5846.5650039
-931.298322561 -1374.47561606 5847.13787258
-931.450189702 -1370.31114275 5848.09136738
-931.557438066 -1366.07980728 5848.76472409
-931.568082851 -1361.7062523 5848.83155715
-931.526792562 -1357.25692636 5848.5723169
-931.493685694 -1352.8198744 5848.3644561
-931.49726433 -1348.43624037 5848.38692449
-931.506103064 -1344.06016235 5848.4424183
-931.484702895 -1339.64051214 5848.30805777
-931.430544032 -1335.1741051 5847.96802243
-931.355695333 -1330.67864772 5847.49808638
-931.283562132 -1326.18776263 5847.04519952
-931.231491029 -1321.72603203 5846.71827214
-931.204308358 -1317.29999978 5846.54760629
-931.193972631 -1312.89797631 5846.48271363
-931.190788289 -1308.50609935 5846.4627208
-931.189303619 -1304.11663275 5846.45339933
-931.188198786 -1299.72771031 5846.44646266
-931.18733676 -1295.33913604 5846.44105044
-931.186847019 -1290.95108601 5846.43797561
-931.186488575 -1286.56322201 5846.43572513
-931.186283861 -1282.17557305 5846.43443984
-931.186277635 -1277.78819839 5846.43440075
-931.186471203 -1273.40109701 5846.43561606
-931.186551292 -1269.01383916 5846.4361189
-931.186524989 -1264.62643606 5846.43595376
-931.186388492 -1260.23888408 5846.43509676
-931.186125173 -1255.85116235 5846.43344352
-931.185767889 -1251.46331681 5846.43120032
-931.185479682 -1247.07556715 5846.42939082
-931.185601196 -1242.68836698 5846.43015374
-931.186382396 -1238.30204293 5846.43505849
-931.187715567 -1233.91644294 5846.44342878
-931.189061324 -1229.530847 5846.45187809
-931.189781975 -1225.14441594 5846.45640268
-931.189669175 -1220.75688547 5846.45569446
-931.188966805 -1216.36858593 5846.45128465
-931.188211549 -1211.98022418 5846.44654279
-931.187944215 -1207.59250229 5846.44486434
-931.189408844 -1203.20702083 5846.45405998
-931.193688882 -1198.82515014 5846.48093212
-931.2011722 -1194.44734795 5846.52791598
-931.212872499 -1190.07486448 5846.60137607
-931.229526543 -1185.70857822 5846.70593815
-931.252920483 -1181.350685 5846.85281654
-931.283452843 -1177.00159321 5847.04451335
-931.314069105 -1172.65231935 5847.23673693
-931.327780921 -1168.28155162 5847.3228263
-931.310961997 -1163.87249998 5847.21722902
-931.273342495 -1159.43771006 5846.98103573
-931.235416545 -1155.00289454 5846.74291841
-931.214395781 -1150.58932411 5846.61093997
-931.207545465 -1146.19339371 5846.5679304
-931.204008803 -1141.80159092 5846.54572554
-931.198792817 -1137.40777026 5846.51297707
-931.197271364 -1133.018494 5846.50342466
-931.200183655 -1128.63460588 5846.52170942
-931.20475025 -1124.25268757 5846.55038069
-931.204853036 -1119.86535806 5846.55102603
-931.201598164 -1115.47400549 5846.53059039
-931.200887768 -1111.08571959 5846.52613018
-931.206777575 -1106.70528449 5846.56310921
-931.215908484 -1102.32863055 5846.62043744
-931.218706726 -1097.94442409 5846.63800615
-931.213586898 -1093.55089285 5846.60586141
-931.205741273 -1089.15422172 5846.55660281
-931.241648942 -1084.80859297 5846.78204839
-931.392324433 -1080.5957788 5847.72806144
-931.631140635 -1076.48338983 5849.22746419
-931.816752763 -1072.30752475 5850.39282622
-931.869969552 -1067.97817772 5850.72694677
-931.812796262 -1063.52233576 5850.36798541
-931.685461107 -1058.98728405 5849.56851419
-931.543131729 -1054.43645991 5848.67490203
-931.415724223 -1049.90379709 5847.87497656
-931.316418441 -1045.40387908 5847.2514872
-931.251641005 -1040.94349228 5846.84478336
-931.21611644 -1036.51627661 5846.62174309
-931.199290574 -1032.11012071 5846.51610223
-931.191492259 -1027.71408666 5846.46714066
-931.188203136 -1023.32308145 5846.44648997
-931.186894143 -1018.93427395 5846.43827149
-931.18637224 -1014.54633633 5846.43499472
-931.186200925 -1010.15878396 5846.43391913
-931.186158675 -1005.7713726 5846.43365386
-931.186210163 -1001.38406245 5846.43397713
-931.186442257 -996.996945174 5846.43543432
-931.186649926 -992.609799681 5846.43673817
-931.18667825 -988.2224619 5846.43691601
-931.186500292 -983.834905907 5846.4357987
-931.186187886 -979.447210175 5846.43383726
-931.18589475 -975.059537565 5846.43199681
-931.185775203 -970.672048667 5846.43124624
-931.185639294 -966.284543918 5846.43039294
-931.185677472 -961.897220277 5846.43063264
-931.185854714 -957.510039271 5846.43174545
-931.186065571 -953.122891003 5846.43306931
-931.186301427 -948.735766218 5846.43455013
-931.186550575 -944.348652689 5846.4361144
-931.186737347 -939.96147385 5846.43728704
-931.187007784 -935.57437731 5846.43898498
-931.187199919 -931.187199919 5846.44019129
-931.187344268 -926.799973157 5846.44109758
-931.187409658 -922.41266682 5846.44150813
-931.187639082 -918.025521581 5846.44294857
-931.188185002 -913.638684713 5846.44637611
-931.189245174 -909.252344837 5846.45303238
-931.191915724 -904.867559824 5846.46979938
-931.196057461 -900.484172313 5846.49580319
-931.200619749 -896.101150472 5846.52444743
-931.20584924 -891.71872455 5846.55728068
-931.209957042 -887.335180511 5846.58307144
-931.210781086 -882.948484194 5846.58824518
-931.209310366 -878.55961509 5846.57901129
-931.208507178 -874.171386493 5846.57396849
-931.217197937 -869.792033167 5846.62853325
-931.249602454 -865.434635765 5846.83198436
-931.297879109 -861.091608618 5847.13508837
-931.321776957 -856.725700414 5847.28513053
-931.293348889 -852.311678788 5847.10664547
-931.25961965 -847.893098435 5846.89487712
-931.337979168 -843.576362355 5847.38685579
-931.492682842 -839.327678289 5848.35815971
-931.571541644 -835.009553246 5848.85327312
-931.550306066 -830.601437603 5848.71994596
-931.475994747 -826.146448031 5848.25338384
-931.387974969 -821.680064962 5847.70075342
-931.307757242 -817.22135761 5847.19710803
-931.249775466 -812.782813415 5846.83307061
-931.215081263 -808.365030965 5846.61524375
-931.197443532 -803.962301388 5846.50450561
-931.189626637 -799.568170698 5846.45542739
-931.186955003 -795.178507416 5846.43865359
-931.186329468 -790.790606916 5846.43472618
-931.186433119 -786.403328122 5846.43537695
-931.186543369 -782.016053892 5846.43606916
-931.186466167 -777.628622084 5846.43558445
-931.186157635 -773.240998911 5846.43364734
-931.185945939 -768.853458599 5846.4323182
-931.185837997 -764.46600546 5846.43164049
-931.185822636 -760.078628907 5846.43154405
-931.185835745 -755.691275604 5846.43162635
-931.18585925 -751.303930565 5846.43177393
-931.185859383 -746.916566557 5846.43177476
-931.185828985 -742.529178203 5846.43158391
-931.185829259 -738.141814449 5846.43158563
-931.185812923 -733.754437603 5846.43148306
-931.185826937 -729.367084684 5846.43157105
-931.185881713 -724.979763368 5846.43191496
-931.185904134 -720.592416498 5846.43205573
-931.185991185 -716.205119126 5846.43260228
-931.186098883 -711.817836717 5846.43327846
-931.186131637 -707.430496357 5846.4334841
-931.186156447 -703.043149691 5846.43363987
-931.186207027 -698.655822126 5846.43395744
-931.186195384 -694.268447693 5846.43388434
-931.186088766 -689.881003005 5846.43321494
-931.18601521 -685.493583661 5846.43275312
-931.185986907 -681.10619811 5846.43257542
-931.186059208 -676.718885937 5846.43302936
-931.186101818 -672.331551646 5846.43329689
-931.186060478 -667.944156736 5846.43303733
-931.186079591 -663.556805293 5846.43315734
-931.186107525 -659.169459914 5846.43333272
-931.186014415 -654.782029158 5846.43274813
-931.18605092 -650.39468981 5846.43297732
-926.776928109 -1479.57194241 5846.29572477
-926.777409951 -1475.18544736 5846.29876433
-926.776965781 -1470.79747816 5846.29596242
-926.778744679 -1466.41303066 5846.30718406
-926.780914601 -1462.02918317 5846.32087237
-926.780776158 -1457.64168454 5846.31999904
-926.7789646 -1453.25156366 5846.30857137
-926.778041572 -1448.862849 5846.30274873
-926.777384346 -1444.47455736 5846.29860281
-926.777637204 -1440.08768609 5846.30019789
-926.778155767 -1435.70122403 5846.30346909
-926.777092352 -1431.31231387 5846.29676085
-926.776628707 -1426.92433722 5846.29383609
-926.776389956 -1422.53671015 5846.29233
-926.776695917 -1418.14991886 5846.29426006
-926.77743567 -1413.7637864 5846.29892657
-926.777852812 -1409.37715634 5846.30155799
-926.777098736 -1404.98874677 5846.29680113
-926.777146539 -1400.60155619 5846.29710268
-926.776482001 -1396.21329199 5846.29291064
-926.775988182 -1391.82529047 5846.28979553
-926.775475827 -1387.43726588 5846.28656349
-926.776489473 -1383.05152342 5846.29295777
-926.791869889 -1378.68714325 5846.38998054
-926.872389643 -1374.41920978 5846.89791538
-927.014788882 -1370.24197946 5847.79619849
-927.117703089 -1366.00522412 5848.44540206
-927.119184782 -1361.618525 5848.45474888
-927.05400841 -1357.13422969 5848.04360318
-926.993637974 -1352.65756422 5847.6627743
-926.9961988 -1348.27300092 5847.67892851
-927.048269131 -1343.96018829 5848.00739865
-927.08485805 -1339.62451224 5848.23820893
-927.070248849 -1335.21475158 5848.14605114
-927.007020345 -1330.73533536 5847.74719299
-926.923784593 -1326.22789171 5847.22212509
-926.851631882 -1321.73704109 5846.76697124
-926.808004466 -1317.28741707 5846.4917607
-926.789802481 -1312.87422333 5846.37693891
-926.783926194 -1308.47860394 5846.3398701
-926.781538459 -1304.08794897 5846.3248078
-926.77977486 -1299.69819189 5846.31368265
-926.778382626 -1295.30897055 5846.30490016
-926.777348159 -1290.92026072 5846.29837453
-926.776629419 -1286.53199897 5846.29384058
-926.776124196 -1282.14403942 5846.29065353
-926.775942816 -1277.75653114 5846.28950935
-926.776118646 -1273.36951537 5846.29061852
-926.776309715 -1268.9825188 5846.29182382
-926.776409414 -1264.59539575 5846.29245274
-926.776381838 -1260.20809869 5846.29227879
-926.776088207 -1255.82044138 5846.2904265
-926.775597293 -1251.43252045 5846.28732972
-926.775006776 -1247.04447015 5846.28360462
-926.77463418 -1242.65671763 5846.28125421
-926.774770417 -1238.2696485 5846.28211362
-926.775484786 -1233.88334779 5846.28662
-926.776420058 -1229.49733337 5846.29251989
-926.777014684 -1225.1108598 5846.29627091
-926.776900996 -1220.72344762 5846.29555374
-926.776271871 -1216.33536005 5846.2915851
-926.775786295 -1211.94746614 5846.28852199
-926.776130063 -1207.56065745 5846.29069054
-926.778472659 -1203.17644045 5846.30546811
-926.784082027 -1198.79642685 5846.34085313
-926.793154648 -1194.42082346 5846.39808505
-926.805768424 -1190.04968114 5846.4776553
-926.82126349 -1185.68210542 5846.5754013
-926.841342755 -1181.32022587 5846.70206535
-926.86758673 -1176.96598436 5846.86761764
-926.895071728 -1172.61306439 5847.04099855
-926.906951326 -1168.24021571 5847.11593744
-926.892803855 -1163.83457418 5847.02669234
-926.860263963 -1159.40605959 5846.82142414
-926.826383396 -1154.97618238 5846.6076987
-926.807203685 -1150.56487601 5846.48670922
-926.801547125 -1146.17047523 5846.45102649
-926.797223716 -1141.7777704 5846.42375356
-926.790153879 -1137.38173601 5846.3791556
-926.785936453 -1132.98925561 5846.35255122
-926.785179878 -1128.60102962 5846.3477786
-926.787736421 -1124.21682969 5846.36390579
-926.789540765 -1119.83169668 5846.37528795
-926.789317638 -1115.4441064 5846.37388042
-926.787666668 -1111.05480651 5846.36346577
-926.787579889 -1106.66739004 5846.36291835
-926.790929645 -1102.28406165 5846.38404929
-926.792791465 -1097.8989389 5846.39579402
-926.79438017 -1093.51347628 5846.40581589
-926.811882375 -1089.14669943 5846.51622333
-926.920080414 -1084.88590911 5847.19875838
-927.153372021 -1080.76991423 5848.67040887
-927.371605038 -1076.6342283 5850.04706674
-927.45348336 -1072.33882037 5850.56357171
-927.399054805 -1067.88568197 5850.22022541
-927.269441535 -1063.34684077 5849.40259877
-927.123367724 -1058.79042851 5848.48113572
-926.998132614 -1054.25909873 5847.69112739
-926.902627164 -1049.76262496 5847.08865976
-926.837490985 -1045.30130633 5846.67776761
-926.800547494 -1040.87226707 5846.44472062
-926.784139644 -1036.46654357 5846.34121659
-926.777732154 -1032.07211194 5846.30079686
-926.77562591 -1027.68251055 5846.28751024
-926.774969304 -1023.29452971 5846.28336824
-926.774848821 -1018.9071445 5846.28260821
-926.77489514 -1014.51994303 5846.2829004
-926.775023836 -1010.13283091 5846.28371224
-926.775184092 -1005.74575181 5846.28472316
-926.775383311 -1001.3587133 5846.28597988
-926.775765072 -996.971869274 5846.28838811
-926.776101919 -992.584973527 5846.290513
-926.776233972 -988.197856225 5846.29134602
-926.776100518 -983.810455826 5846.29050417
-926.775895117 -979.422980656 5846.28920845
-926.77568098 -975.03549824 5846.28785763
-926.775574789 -970.648130907 5846.28718776
-926.775361126 -966.260652529 5846.28583993
-926.775097928 -961.873124763 5846.28417963
-926.774879207 -957.48564544 5846.28279989
-926.774783935 -953.098295143 5846.2821989
-926.774888774 -948.711150596 5846.28286024
-926.775033704 -944.324045906 5846.28377449
-926.775267471 -939.937029942 5846.28524913
-926.775642727 -935.550154594 5846.28761632
-926.77593513 -931.163192448 5846.28946086
-926.776191212 -926.776191212 5846.29107628
-926.776334138 -922.389074932 5846.29197789
-926.776668611 -918.002147031 5846.29408781
-926.777382336 -913.61558983 5846.29859013
-926.778797337 -909.229713869 5846.30751625
-926.781810341 -904.845384689 5846.32652288
-926.786257888 -900.462420781 5846.3545789
-926.79110444 -896.079800547 5846.38515193
-926.796309988 -891.697479828 5846.41798957
-926.800402832 -887.314044526 5846.44380806
-926.801191834 -882.927423033 5846.44878525
-926.799519515 -878.538460916 5846.43823592
-926.797984923 -874.149644535 5846.4285554
-926.804970307 -869.768838336 5846.47262062
-926.835015822 -865.409497832 5846.66215378
-926.878640995 -861.062488253 5846.93735017
-926.891834191 -856.68693865 5847.02057551
-926.869674112 -852.278755958 5846.88078526
-926.900851787 -847.919575914 5847.07746032
-927.042543963 -843.660675076 5847.97128314
-927.164108292 -839.382210542 5848.73813543
-927.162659235 -834.99181065 5848.72899449
-927.083162689 -830.531505295 5848.22751425
-926.986873054 -826.056987928 5847.62009982
-926.903253234 -821.594612566 5847.09260913
-926.840441833 -817.151374697 5846.69638215
-926.802413645 -812.730464379 5846.45649268
-926.78390722 -808.32694069 5846.33975041
-926.77692955 -803.933592847 5846.29573386
-926.775132554 -799.544780523 5846.28439805
-926.775094154 -795.157494058 5846.28415582
-926.775400733 -790.770502309 5846.28608978
-926.775764158 -786.383555894 5846.28838234
-926.775857508 -781.996378152 5846.28897121
-926.775736389 -777.609019577 5846.28820717
-926.775420187 -773.221499389 5846.2862125
-926.775174584 -768.834040762 5846.28466319
-926.774983657 -764.446629559 5846.28345878
-926.774914307 -760.059319871 5846.28302131
-926.77492622 -755.672077099 5846.28309645
-926.774938447 -751.284834469 5846.28317358
-926.774933574 -746.897577942 5846.28314284
-926.774890652 -742.510290978 5846.28287209
-926.774883017 -738.123032524 5846.28282392
-926.774867403 -733.735767825 5846.28272543
-926.774841279 -729.348495003 5846.28256063
-926.774826232 -724.961231093 5846.28246571
-926.774777466 -720.573941109 5846.28215808
-926.774765658 -716.186680147 5846.2820836
-926.774779628 -711.799439095 5846.28217173
-926.774810601 -707.412210889 5846.28236711
-926.774828148 -703.024972206 5846.2824778
-926.774798765 -698.637697979 5846.28229245
-926.77477813 -694.250430582 5846.28216227
-926.774751405 -689.863158849 5846.28199369
-926.774757965 -685.475911986 5846.28203507
-926.774802051 -681.088692641 5846.28231318
-926.774896547 -676.701509685 5846.28290927
-926.77491666 -672.314271874 5846.28303615
-926.774827434 -667.926955073 5846.2824733
-926.774800608 -663.539683792 5846.28230407
-926.774840694 -659.152460356 5846.28255694
-926.774840049 -654.765207764 5846.28255287
-926.774977163 -650.378051851 5846.28341781
-922.358326861 -1479.52167229 5846.09709028
-922.358921786 -1475.1355108 5846.10086104
-922.358913145 -1470.74838124 5846.10080627
-922.359772467 -1466.36263164 5846.10625283
-922.362196322 -1461.97935371 5846.12161572
-922.364459313 -1457.59579851 5846.13595903
-922.363604877 -1453.2073102 5846.13054344
-922.361960488 -1448.81758918 5846.12012096
-922.360871379 -1444.42875339 5846.11321796
-922.360590179 -1440.0411893 5846.11143565
-922.361065591 -1435.65480556 5846.11444892
-922.359988601 -1431.26600836 5846.10762273
-922.360134617 -1426.87911339 5846.10854821
-922.360354166 -1422.49233043 5846.10993976
-922.360892074 -1418.10603485 5846.11334913
-922.361632145 -1413.72004401 5846.11803985
-922.360982999 -1409.33192347 5846.11392543
-922.359123968 -1404.94196619 5846.10214251
-922.359229924 -1400.55501033 5846.10281408
-922.358552178 -1396.16686718 5846.09851839
-922.358331155 -1391.77941964 5846.0971175
-922.358084034 -1387.39193495 5846.0955512
-922.358817616 -1383.0059231 5846.10020079
-922.372327107 -1378.639 5846.18582673
-922.445332739 -1374.36059228 5846.64855146
-922.585323798 -1370.18097372 5847.53584363
-922.690180913 -1365.94801126 5848.20044963
-922.691029111 -1361.5605715 5848.20582568
-922.611429548 -1357.05479432 5847.70130725
-922.523801082 -1352.53800295 5847.14589999
-922.497848433 -1348.11217647 5846.98140675
-922.559001242 -1343.813476 5847.36900585
-922.648050284 -1339.55469519 5847.93341702
-922.688119561 -1335.22418854 5848.18738436
-922.654298709 -1330.78672559 5847.97302083
-922.572278054 -1326.28029283 5847.45315702
-922.482384423 -1321.76335966 5846.88339267
-922.417537728 -1317.28305057 5846.47238095
-922.385001286 -1312.84934621 5846.26615828
-922.372040992 -1308.44372137 5846.18401327
-922.366592662 -1304.04884029 5846.14948063
-922.363591239 -1299.65745886 5846.130457
-922.361630099 -1295.26756685 5846.11802688
-922.360320697 -1290.87860562 5846.10972762
-922.35939491 -1286.49019191 5846.10385979
-922.358765302 -1282.10219871 5846.09986921
-922.3585253 -1277.7147512 5846.09834803
-922.358652412 -1273.32781278 5846.09915369
-922.358906709 -1268.94104812 5846.10076548
-922.359111382 -1264.55421302 5846.10206274
-922.359183295 -1260.16719458 5846.10251854
-922.358741619 -1255.77947621 5846.09971911
-922.358078743 -1251.39146194 5846.09551766
-922.357498703 -1247.00356597 5846.09184125
-922.357168579 -1242.6160122 5846.08974885
-922.357103357 -1238.22881719 5846.08933546
-922.357507572 -1233.84225078 5846.09189746
-922.358305164 -1229.45620487 5846.09695276
-922.358976633 -1225.06998386 5846.10120867
-922.359007063 -1220.68290808 5846.10140154
-922.358486576 -1216.29510553 5846.09810259
-922.358149955 -1211.90754952 5846.09596902
-922.358807425 -1207.52129815 5846.1001362
-922.361714051 -1203.13797434 5846.11855899
-922.368157242 -1198.75921919 5846.15939726
-922.377798132 -1194.38454344 5846.22050321
-922.390287222 -1190.01345055 5846.29966163
-922.404640789 -1185.64463543 5846.3906375
-922.422484523 -1181.28015338 5846.50373476
-922.445933532 -1176.92265319 5846.65235941
-922.47284692 -1172.56933356 5846.82294201
-922.486631867 -1168.19913259 5846.91031384
-922.477076755 -1163.79935461 5846.84975157
-922.449127489 -1159.3765489 5846.67260337
-922.415449163 -1154.94683578 5846.4591432
-922.392336974 -1150.53062252 5846.31265338
-922.382702608 -1146.13137636 5846.25158879
-922.37554205 -1141.73528398 5846.20620369
-922.367904964 -1137.33867213 5846.15779827
-922.363664794 -1132.94630538 5846.1309232
-922.361829774 -1128.55692179 5846.11929246
-922.362299091 -1124.17036418 5846.12226709
-922.363681244 -1119.78491031 5846.13102747
-922.364615041 -1115.39890111 5846.13694606
-922.362544984 -1111.00926481 5846.12382561
-922.360579525 -1106.61977369 5846.11136813
-922.362825397 -1102.23533387 5846.12560293
-922.368527162 -1097.85498608 5846.16174189
-922.381579524 -1093.48329818 5846.24447045
-922.435095159 -1089.15926286 5846.58366357
-922.610236009 -1084.97774815 5847.69374235
-922.853702247 -1080.87459214 5849.23688153
-922.990627492 -1076.64484276 5850.10474194
-922.978619136 -1072.240772 5850.0286305
-922.862953793 -1067.71688833 5849.29551973
-922.711356449 -1063.15270394 5848.33466454
-922.579211026 -1058.61228174 5847.49709963
-922.484092668 -1054.11542716 5846.89421988
-922.421517697 -1049.65650971 5846.49760682
-922.385004229 -1045.22771988 5846.26617694
-922.367103435 -1040.82028036 5846.15271802
-922.360312153 -1036.42549453 5846.10967347
-922.357949719 -1032.03572878 5846.09469988
-922.357266112 -1027.64785597 5846.09036703
-922.357120975 -1023.26058704 5846.08944713
-922.357171016 -1018.8735351 5846.0897643
-922.357266712 -1014.4865329 5846.09037084
-922.357415559 -1010.09958799 5846.09131426
-922.357576554 -1005.71265491 5846.09233468
-922.357699612 -1001.32567912 5846.09311465
-922.357940618 -996.938829641 5846.09464219
-922.3581981 -992.551995599 5846.09627417
-922.35829041 -988.164982151 5846.09685925
-922.358172662 -983.77774378 5846.09611294
-922.357958322 -979.390403963 5846.09475441
-922.357947064 -975.00328086 5846.09468305
-922.358060494 -970.616289075 5846.09540199
-922.358020632 -966.229135628 5846.09514934
-922.357720166 -961.8417108 5846.09324493
-922.35733666 -957.454202631 5846.09081419
-922.357108513 -953.066858641 5846.08936814
-922.357087696 -948.679730069 5846.0892362
-922.357180492 -944.29271801 5846.08982436
-922.357463666 -939.905899068 5846.09161918
-922.358018892 -935.519353365 5846.09513831
-922.358486818 -931.132714251 5846.09810412
-922.358843983 -926.745959399 5846.10036791
-922.359060691 -922.359060691 5846.10174145
-922.359484197 -917.972365736 5846.10442572
-922.360320572 -913.586075694 5846.10972683
-922.361809903 -909.200421335 5846.11916652
-922.364715642 -904.816142267 5846.13758369
-922.369184377 -900.433361382 5846.16590745
-922.374353514 -896.051218401 5846.19867051
-922.380141971 -891.669624947 5846.23535894
-922.384687748 -887.286781034 5846.26417101
-922.38529482 -882.900123779 5846.26801876
-922.383189703 -878.510877563 5846.25467609
-922.381298333 -874.121853937 5846.2426882
-922.387659952 -869.740630237 5846.28300945
-922.41294164 -865.377096198 5846.44325
-922.440701617 -861.015634919 5846.61919845
-922.439805771 -856.627298224 5846.6135204
-922.452655857 -852.251669883 5846.69496689
-922.562389122 -847.964968609 5847.39047893
-922.710887017 -843.712669245 5848.33168918
-922.758352133 -839.367054978 5848.63253286
-922.693322177 -834.919195563 5848.2203596
-922.590144057 -830.437617016 5847.56639543
-922.497675871 -825.966609219 5846.98031301
-922.430756926 -821.519235275 5846.55616695
-922.388425037 -817.094278269 5846.28785872
-922.367731935 -812.688789673 5846.15670158
-922.359777106 -808.2946609 5846.10628223
-922.357548377 -803.905598537 5846.09215609
-922.357299485 -799.518273539 5846.09057856
-922.357450825 -795.131295935 5846.09153779
-922.35760867 -790.744322467 5846.09253824
-922.357698745 -786.35728972 5846.09310915
-922.35759981 -781.970095875 5846.09248208
-922.357399931 -777.582817872 5846.09121521
-922.357162892 -773.195510619 5846.08971281
-922.356967435 -768.80824028 5846.08847396
-922.356864944 -764.421048849 5846.08782435
-922.35684252 -760.033924369 5846.08768222
-922.356872207 -755.646842794 5846.08787038
-922.356904726 -751.259763243 5846.08807649
-922.356905769 -746.872657896 5846.08808311
-922.356898534 -742.485545876 5846.08803725
-922.356911358 -738.098449975 5846.08811853
-922.356916039 -733.711347475 5846.0881482
-922.356905974 -729.324233271 5846.08808441
-922.356894846 -724.937118327 5846.08801387
-922.356874578 -720.549996349 5846.08788541
-922.356874895 -716.162890547 5846.08788742
-922.356888276 -711.775794823 5846.08797224
-922.356901583 -707.388698915 5846.08805658
-922.356930409 -703.001614708 5846.08823928
-922.356943324 -698.614518176 5846.08832114
-922.356927949 -694.227400229 5846.08822369
-922.356871151 -689.840251446 5846.08786369
-922.356863527 -685.453139748 5846.08781537
-922.356907443 -681.06606618 5846.08809372
-922.35697105 -676.67900664 5846.08849687
-922.356984738 -672.29191011 5846.08858363
-922.356926598 -667.904761437 5846.08821513
-922.356927207 -663.517655578 5846.08821898
-922.357001064 -659.13060206 5846.08868711
-922.357117163 -654.743577823 5846.08942296
-922.357671218 -650.356861286 5846.09293468
-917.962646743 -1479.50786434 5846.04253034
-917.962824626 -1475.12107817 5846.04366318
-917.963968398 -1470.73583783 5846.05094729
-917.965686859 -1466.35150456 5846.06189131
-917.96673736 -1461.96609106 5846.06858142
-917.969280768 -1457.58303801 5846.08477911
-917.970013553 -1453.19709433 5846.08944584
-917.970345374 -1448.81051081 5846.09155904
-917.97018517 -1444.42314993 5846.09053878
-917.969512754 -1440.03498706 5846.08625651
-917.969079182 -1435.64720415 5846.08349531
-917.967289407 -1431.25731085 5846.07209713
-917.966805643 -1426.8694647 5846.06901628
-917.967468047 -1422.48339927 5846.0732348
-917.968045203 -1418.09719582 5846.07691041
-917.967969212 -1413.70998098 5846.07642646
-917.965644813 -1409.31931496 5846.06162353
-917.962666075 -1404.92766971 5846.04265345
-917.962827623 -1400.54084408 5846.04368227
-917.963117661 -1396.15421233 5846.04552937
-917.963145556 -1391.76718036 5846.04570703
-917.962707109 -1387.37944331 5846.04291478
-917.963622435 -1382.99375003 5846.04874403
-917.975285626 -1378.62418925 5846.12302102
-918.039849303 -1374.33371063 5846.53419462
-918.171556316 -1370.14280963 5847.37297036
-918.279403257 -1365.91515855 5848.0597933
-918.288511182 -1361.54007697 5848.1177971
-918.20869712 -1357.03348928 5847.60950147
-918.105509981 -1352.49323279 5846.95235446
-918.050280212 -1348.02438107 5846.60062384
-918.088290149 -1343.6925207 5846.84269001
-918.203968458 -1339.47359944 5847.579387
-918.30559199 -1335.23313659 5848.22657618
-918.321951227 -1330.86813404 5848.33075993
-918.258445669 -1326.38761362 5847.92632496
-918.160402554 -1321.85797715 5847.30193766
-918.073444535 -1317.34518382 5846.74814576
-918.019676523 -1312.88068744 5846.40572433
-917.992399974 -1308.45446442 5846.2320137
-917.97936902 -1304.04873891 5846.14902611
-917.97272773 -1299.65218434 5846.10673107
-917.96931764 -1295.26025249 5846.08501392
-917.967443274 -1290.87051281 5846.07307703
-917.966087757 -1286.48151819 5846.06444442
-917.965041399 -1282.09296832 5846.05778069
-917.964448761 -1277.70505997 5846.05400648
-917.964487134 -1273.31803258 5846.05425086
-917.964792169 -1268.93137343 5846.05619348
-917.964948577 -1264.54450662 5846.05718956
-917.964879748 -1260.15732912 5846.05675122
-917.96424147 -1255.76937328 5846.05268635
-917.963487941 -1251.38126642 5846.0478875
-917.963135328 -1246.99371139 5846.04564189
-917.96280212 -1242.60618599 5846.04351985
-917.962222697 -1238.21833167 5846.0398298
-917.961827876 -1233.830731 5846.03731539
-917.962123821 -1229.44405927 5846.03920011
-917.96260451 -1225.05763125 5846.04226138
-917.96266357 -1220.67063798 5846.0426375
-917.96247196 -1216.28331201 5846.04141723
-917.962648885 -1211.8964744 5846.04254398
-917.963785472 -1207.51089748 5846.04978233
-917.967068051 -1203.12812231 5846.07068742
-917.973447361 -1198.74935969 5846.11131404
-917.982229332 -1194.37366216 5846.167242
-917.993528774 -1190.0011441 5846.23920246
-918.007394251 -1185.63183214 5846.32750472
-918.025314214 -1181.26760476 5846.44162795
-918.049571503 -1176.91133035 5846.59611043
-918.078269136 -1172.56049524 5846.77887122
-918.093974741 -1168.19285464 5846.87889232
-918.086183909 -1163.79527909 5846.82927643
-918.058527087 -1159.37269018 5846.65314403
-918.01973421 -1154.93635565 5846.40609171
-917.990395172 -1150.51224035 5846.21924613
-917.978301272 -1146.10993631 5846.14222616
-917.973097652 -1141.71631755 5846.10908692
-917.970717694 -1137.32624693 5846.09393016
-917.969829351 -1132.93803997 5846.08827275
-917.966375813 -1128.54668785 5846.06627891
-917.963975002 -1124.15665794 5846.05098935
-917.964106781 -1119.76974033 5846.05182859
-917.964904924 -1115.38363113 5846.05691155
-917.963972109 -1110.99541936 5846.05097092
-917.962731487 -1106.60684544 5846.04307003
-917.965446022 -1102.22303243 5846.06035753
-917.973860944 -1097.84601082 5846.11394794
-917.998191569 -1093.48786702 5846.26889746
-918.087382291 -1089.20643979 5846.83690832
-918.29125178 -1085.05966533 5848.13525059
-918.482831883 -1080.89647974 5849.35532794
-918.536439406 -1076.56975233 5849.6967273
-918.463868393 -1072.09522812 5849.234559
-918.326220322 -1067.54574609 5848.35794765
-918.185231242 -1062.99371181 5847.46005909
-918.082063065 -1058.4866301 5846.80303285
-918.019829311 -1054.02753349 5846.40669736
-917.986519598 -1049.60210272 5846.19456454
-917.970660262 -1045.19685926 5846.09356441
-917.964032239 -1040.80223399 5846.05135386
-917.961944407 -1036.41279812 5846.03805751
-917.961385709 -1032.02510134 5846.03449944
-917.961321959 -1027.63796399 5846.03409345
-917.961436363 -1023.25102583 5846.03482203
-917.961659481 -1018.86420725 5846.03624296
-917.961837224 -1014.47733638 5846.03737491
-917.96199758 -1010.09044469 5846.03839614
-917.962091428 -1005.7034786 5846.03899381
-917.962080828 -1001.31639768 5846.03892631
-917.96212525 -996.929376613 5846.03920921
-917.962267781 -992.542461204 5846.04011692
-917.962352914 -988.155482645 5846.04065908
-917.962342009 -983.768400351 5846.04058964
-917.962244381 -979.381225634 5846.03996789
-917.962269187 -974.994181892 5846.04012587
-917.962613556 -970.607475802 5846.04231898
-917.962970752 -966.220779923 5846.04459379
-917.962831602 -961.833560561 5846.04370761
-917.962287755 -957.445920426 5846.04024412
-917.961790964 -953.058334345 5846.03708031
-917.961581857 -948.671050319 5846.03574861
-917.961635158 -944.284038226 5846.03608806
-917.961968552 -939.897312409 5846.03821128
-917.962533692 -935.510819581 5846.04181037
-917.962975041 -931.124195785 5846.0446211
-917.963364859 -926.737515748 5846.04710365
-917.963796498 -922.350874005 5846.04985255
-917.9645202 -917.9645202 5846.05446144
-917.965462391 -913.578376922 5846.06046178
-917.9668461 -909.192661937 5846.06927393
-917.969386768 -904.808074096 5846.08545417
-917.97378862 -900.425287576 5846.11348735
-917.979525829 -896.043762429 5846.15002474
-917.986086207 -891.66298201 5846.1918045
-917.990818525 -887.280371979 5846.22194225
-917.990889965 -882.893234039 5846.22239722
-917.988150631 -878.503405539 5846.20495177
-917.986138704 -874.114295866 5846.19213882
-917.990984728 -869.731702848 5846.22300071
-918.004590226 -865.357320632 5846.30964729
-918.009550765 -860.974700512 5846.34123847
-918.014045396 -856.591598243 5846.36986251
-918.086347553 -852.271399614 5846.8303186
-918.226204692 -848.012899207 5847.72099839
-918.318404687 -843.709276786 5848.3081738
-918.29635433 -839.300351071 5848.16774617
-918.204509067 -834.828178846 5847.58282987
-918.108780339 -830.353372232 5846.97318173
-918.03738497 -825.901371835 5846.51850052
-917.993796466 -821.474937077 5846.24090726
-917.971580667 -817.067942362 5846.09942601
-917.963474471 -812.673651232 5846.04780172
-917.961572724 -808.284900735 5846.03569045
-917.961531566 -803.897797812 5846.03542833
-917.961748854 -799.510920379 5846.03681213
-917.961826497 -795.12391991 5846.0373066
-917.961743178 -790.736780046 5846.03677598
-917.961573424 -786.349566937 5846.03569491
-917.961332704 -781.962294997 5846.03416188
-917.961165323 -777.575087482 5846.03309592
-917.961030313 -773.187908832 5846.0322361
-917.960947667 -768.800775328 5846.03170978
-917.960926433 -764.413693753 5846.03157454
-917.960935883 -760.026637786 5846.03163473
-917.960953432 -755.639588396 5846.03174649
-917.960984316 -751.252549752 5846.03194317
-917.961019001 -746.865513905 5846.03216406
-917.9610308 -742.478459215 5846.0322392
-917.9610277 -738.091392433 5846.03221947
-917.961033925 -733.704333133 5846.03225911
-917.961021311 -729.317258807 5846.03217877
-917.960976638 -724.930159283 5846.03189427
-917.96092115 -720.543051698 5846.0315409
-917.960923965 -716.155990129 5846.03155883
-917.960917756 -711.768921536 5846.03151929
-917.960904358 -707.381847462 5846.03143396
-917.96091247 -702.994789989 5846.03148562
-917.960965347 -698.607766506 5846.03182237
-917.960969856 -694.220705939 5846.03185109
-917.960945183 -689.8336234 5846.03169396
-917.96091575 -685.446537541 5846.03150651
-917.960940984 -681.059492523 5846.03166721
-917.960951114 -676.67243613 5846.03173173
-917.960957509 -672.285376904 5846.03177245
-917.96094123 -667.898301121 5846.03166878
-917.961030641 -663.511301887 5846.0322382
-917.961327027 -659.124450412 5846.03412573
-917.962008961 -654.737871097 5846.03846862
-917.963849746 -650.352106278 5846.05019166
-913.562865445 -1479.48728203 5845.96120261
-913.562901697 -1475.10032959 5845.96143459
-913.564710035 -1470.71622961 5845.97300629
-913.565952781 -1466.33120446 5845.98095872
-913.565317761 -1461.94316246 5845.97689517
-913.567310451 -1457.55931895 5845.98964656
-913.569880372 -1453.17637449 5846.00609168
-913.571570322 -1448.79200984 5846.01690581
-913.572395833 -1444.40626223 5846.02218832
-913.573048833 -1440.02023478 5846.02636691
-913.571911098 -1435.631387 5846.01908646
-913.570141079 -1431.24155959 5846.00775997
-913.568804098 -1426.85242551 5845.99920452
-913.570292255 -1422.46770314 5846.00872736
-913.57019107 -1418.08049943 5846.00807986
-913.568355972 -1413.69061357 5845.99633692
-913.566156841 -1409.30018376 5845.98226451
-913.563257633 -1404.90869847 5845.96371225
-913.563435657 -1400.52195852 5845.96485144
-913.563920402 -1396.13568561 5845.96795336
-913.564529695 -1391.74959777 5845.97185228
-913.56427649 -1387.36219428 5845.970232
-913.564833384 -1382.97601956 5845.9737956
-913.573590319 -1378.60221353 5846.02983193
-913.631313035 -1374.30197868 5846.39920417
-913.758409855 -1370.10521018 5847.21250679
-913.869763111 -1365.88369045 5847.9250651
-913.887161542 -1361.52112613 5848.03639904
-913.812913421 -1357.02229857 5847.56127943
-913.702368738 -1352.4704576 5846.85389524
-913.627973701 -1347.97301376 5846.3778355
-913.631763013 -1343.59126271 5846.40208361
-913.734643478 -1339.35472334 5847.06042386
-913.879128563 -1335.17798027 5847.98499538
-913.960248339 -1330.90757706 5848.50408725
-913.941237223 -1326.49106514 5848.38243362
-913.853052481 -1321.97466964 5847.81813246
-913.750538702 -1317.43846158 5847.16213866
-913.672487577 -1312.93839067 5846.66268332
-913.624169343 -1308.48165248 5846.35349111
-913.597168453 -1304.05580642 5846.18071028
-913.582354029 -1299.64755595 5846.08591161
-913.575118396 -1295.25019283 5846.03961021
-913.57160944 -1290.85816493 5846.01715612
-913.569576968 -1286.46824987 5846.00415018
-913.568243585 -1282.07933543 5845.99561775
-913.567509861 -1277.69127245 5845.99092259
-913.567322183 -1273.30397759 5845.98972163
-913.567491467 -1268.91718033 5845.99080489
-913.567499858 -1264.53015875 5845.99085859
-913.567042106 -1260.14249411 5845.98792939
-913.566233379 -1255.75435142 5845.98275428
-913.565767848 -1251.3666866 5845.97977531
-913.56585802 -1246.97978477 5845.98035233
-913.565571862 -1242.59237019 5845.97852118
-913.564576145 -1238.20399667 5845.97214951
-913.563751044 -1233.81586313 5845.96686963
-913.563766857 -1229.42886917 5845.96697081
-913.564136499 -1225.04234954 5845.96933619
-913.564201172 -1220.65541886 5845.96975004
-913.56413095 -1216.26830798 5845.96930067
-913.564713358 -1211.88206351 5845.97302755
-913.566341203 -1207.49719524 5845.98344426
-913.569792125 -1203.11471222 5846.00552698
