ply
format ascii 1.0
element vertex 965
property float x
property float y
property float z
end_header
-0.0350423720838 0.0156645961817 0.0517052374885
-0.0346169870298 0.01554549508 0.0510775792013
-0.0341923970517 0.0154250063862 0.0504510940535
-0.034612272587 0.0156854665638 0.0510706230116
-0.0346130820008 0.0157568793348 0.0510718173067
-0.0354628308887 0.0162164998242 0.0523256270646
-0.0366932680275 0.0168544717825 0.0541411446992
-0.0371448677765 0.0171381496232 0.0548074829315
-0.0375785641389 0.0174153842157 0.0554474046058
-0.0375885241849 0.017497153376 0.0554621007155
-0.0376005672702 0.0175799373374 0.0554798703626
-0.0376131351602 0.0176630171842 0.0554984143624
-0.0376262294191 0.0177463968858 0.0555177350226
-0.037639337363 0.0178298368239 0.0555370758751
-0.0376519441826 0.0179130921598 0.0555556773157
-0.0376640483483 0.0179961590769 0.0555735370874
-0.037674076539 0.0180782795062 0.0555883337449
-0.0376808934056 0.0181588935256 0.055598392074
-0.0372209171132 0.0180136239429 0.0549196941998
-0.0372334280595 0.0180961032258 0.0549381541787
-0.0372432466076 0.0181773197886 0.0549526415074
-0.0392195322349 0.019222387012 0.0578686632156
-0.039536884783 0.0194590811725 0.0583369188699
-0.039560408245 0.0195518595656 0.058371627884
-0.0395898432037 0.0196476682868 0.0584150593483
-0.0401268639945 0.0199965446659 0.0592074368579
-0.0406060679439 0.020318694877 0.0599145052592
-0.0410123142258 0.0206061555695 0.0605139241695
-0.041021743009 0.0206950931751 0.0605278363976
-0.0428965904426 0.021728985003 0.0632941854214
-0.0455734281668 0.0231784624011 0.0672438760964
-0.0456041287686 0.0232876825208 0.0672891750249
-0.0457629469514 0.0234627146998 0.0675235122393
-0.0457902838252 0.0235707183602 0.0675638479662
-0.0458217343744 0.0236809602158 0.0676102534468
-0.0458519879507 0.0237907101208 0.0676548927864
-0.0458835659015 0.023901274103 0.0677014862488
-0.0423980215637 0.0221726393442 0.0625585439464
-0.0424215460543 0.0222720152318 0.0625932544784
-0.0424360164932 0.0223667155795 0.0626146057007
-0.0408757666173 0.0216282565843 0.0603124473257
-0.0408904386144 0.0217199505689 0.0603340959484
-0.0408992493998 0.0218085794286 0.060347096317
-0.0372025408561 0.0199137560641 0.0548925799184
-0.0376248472133 0.0202170358231 0.0555156955693
-0.0376287985248 0.0202963949389 0.055521525754
-0.0376336812759 0.0203762745915 0.0555287302835
-0.0376385291944 0.0204561553573 0.0555358834174
-0.0380586789539 0.0207626207627 0.0561558169951
-0.0380631991036 0.0208432142852 0.056162486504
-0.038068734365 0.0209243843173 0.0561706538165
-0.0380742086681 0.0210055434417 0.0561787311846
-0.0380797487346 0.0210867614557 0.0561869055872
-0.0384913344636 0.0213936845101 0.0567942028847
-0.0389219898019 0.0217129353162 0.057429637509
-0.0393497618187 0.0220323396259 0.0580608177747
-0.0397737083711 0.0223513502351 0.0586863535439
-0.0406060679439 0.0229024524905 0.0599145052592
-0.0410123142258 0.023215762569 0.0605139241695
-0.0414104078208 0.02352610864 0.0611013137396
-0.0428965904426 0.024458488197 0.0632941854214
-0.0429104639578 0.0245544754708 0.0633146558792
-0.0454194726846 0.026083421946 0.067016713827
-0.0454432671429 0.0261903623256 0.0670518226979
-0.0454707256322 0.0262995196004 0.0670923378693
-0.0457629469514 0.0265624675069 0.0675235122393
-0.0457902838252 0.0266723228302 0.0675638479662
-0.0458217343744 0.0267846949885 0.0676102534468
-0.0458519879507 0.0268964941192 0.0676548927864
-0.0458835659015 0.0270091970336 0.0677014862488
-0.0403458452632 0.0238322504704 0.059530545079
-0.040374062032 0.0239317888977 0.0595721790964
-0.0404017020161 0.0240311000851 0.0596129620645
-0.040425605548 0.0241282946122 0.0596482318741
-0.0404431395146 0.024221772475 0.0596741033506
-0.038889574025 0.0233711514378 0.0573818078291
-0.0337771613504 0.0203681164896 0.0498384111992
-0.0329542286045 0.0199395171916 0.0486241688253
-0.0329542286045 0.0200071582335 0.0486241688253
-0.0329540724588 0.0200747041558 0.0486239384314
-0.0325513283581 0.0198961777128 0.0480296870113
-0.0325513283581 0.0199629917715 0.0480296870113
-0.0334536610452 0.0205850381181 0.0493610844912
-0.0381445450565 0.0235497738958 0.0562825129623
-0.0402651909623 0.0249416708722 0.0594115391574
-0.0409863750771 0.0254725252247 0.0604756507946
-0.0410017047191 0.0255662115017 0.0604982697765
-0.0410188106739 0.0256610719577 0.060523509719
-0.0410357952396 0.0257559264469 0.060548570551
-0.0417991430529 0.026320834056 0.0616748949871
-0.0451375841307 0.028515691807 0.0666007855163
-0.0451695702397 0.0286286130003 0.0666479812185
-0.045206206159 0.0287446221098 0.0667020377449
-0.0452413789839 0.0288598482953 0.0667539354663
-0.0452781900506 0.028976267281 0.0668082504237
-0.0442906446598 0.0284351868223 0.0653511210708
-0.044326601642 0.0285492553823 0.065404175821
-0.0459277495177 -0.0174962284023 0.0679060617666
-0.0459528116063 -0.0174112602182 0.0679431170927
-0.0459735898821 -0.0173245746374 0.067973838626
-0.0459856936693 -0.0172345525519 0.0679917345718
-0.0433472574689 -0.0161565609472 0.0640906984124
-0.0377551222578 -0.013994583602 0.0558224970954
-0.0349366795312 -0.0128780218009 0.0516553139024
-0.0337542912287 -0.0123727554981 0.0499071042917
-0.033756845456 -0.0123042607732 0.0499108808215
-0.0337597107828 -0.0122358682963 0.0499151173248
-0.0337629051959 -0.0121675826296 0.0499198403956
-0.0337629051959 -0.01209813918 0.0499198403956
-0.0337629051959 -0.0120286957304 0.0499198403956
-0.0336525424476 -0.0119201603857 0.0497566645449
-0.033656418575 -0.0118523089314 0.0497623955582
-0.0336586604844 -0.0117838693938 0.0497657103133
-0.0336586604844 -0.0117146403545 0.0497657103133
-0.0334483489312 -0.0115726465495 0.0494547560541
-0.0337523316071 -0.0116083984714 0.0499042069108
-0.0337542912287 -0.0115396467092 0.0499071042917
-0.033756845456 -0.0114710889421 0.0499108808215
-0.0337597107828 -0.0114026257443 0.0499151173248
-0.0337629051959 -0.0113342612346 0.0499198403956
-0.0337629051959 -0.011264817785 0.0499198403956
-0.033763916949 -0.0111957098206 0.0499213363142
-0.0337700693011 -0.0111282916821 0.0499304328191
-0.0337756386138 -0.0110606573048 0.0499386672764
-0.0337807573494 -0.0109928533918 0.0499462355369
-0.0344890442696 -0.0111524054597 0.0509934668047
-0.0348574617112 -0.0111998424934 0.0515381871058
-0.0348606165672 -0.0111291549421 0.0515428516898
-0.0352252177758 -0.0111731017344 0.0520819295339
-0.0352288163181 -0.0111017846261 0.0520872501262
-0.0352331723317 -0.0110306898615 0.052093690671
-0.0355917373859 -0.011069743285 0.0526238438132
-0.0355958030315 -0.0109977944335 0.052629855037
-0.0356006711608 -0.0109260751449 0.0526370527659
-0.0365213202437 -0.0111335113248 0.053998270203
-0.0390349045429 -0.0118194897101 0.0577147077046
-0.0420946062874 -0.0126593654298 0.0622386022527
-0.0421165525137 -0.0125793402429 0.0622710506486
-0.042140758937 -0.0124998952034 0.0623068408385
-0.0421645404397 -0.0124202254214 0.0623420027658
-0.0421900764854 -0.0123409710313 0.062379758857
-0.04073443755 -0.0118314012728 0.060227536976
-0.0401456124986 -0.0115778044398 0.059356934982
-0.0410592139186 -0.0117568322837 0.0607077321603
-0.0418495914219 -0.0118970716413 0.0618763377228
-0.0419486249803 -0.0118389452512 0.0620227629015
-0.0419738216592 -0.0117597247409 0.062060017225
-0.042001472626 -0.0116810831468 0.0621009003137
-0.0420285106786 -0.0116021586101 0.0621408771837
-0.0420575049617 -0.0115236588525 0.0621837464207
-0.0415460600389 -0.0112980723085 0.0614275541211
-0.0395687997186 -0.0106789893911 0.058504093624
-0.0395991336893 -0.010605728659 0.0585489436441
-0.039625548503 -0.0105313015489 0.0585879990298
-0.0396451464867 -0.0104549680876 0.0586169754527
-0.0395897156873 -0.0103589222094 0.0585350187418
-0.0396092605264 -0.0102825680344 0.0585639165881
-0.0396215893651 -0.0102042750272 0.0585821452819
-0.0396328961348 -0.0101256701794 0.0585988628049
-0.0396242430039 -0.0100419603883 0.0585860687958
-0.0396362986689 -0.00996349182306 0.0586038935911
-0.0392810211663 -0.00979339158742 0.0580786012288
-0.0374260170987 -0.00925393145216 0.0553359016166
-0.0366713376026 -0.00899190440959 0.0542200770222
-0.0366963345658 -0.00892255680901 0.0542570360578
-0.0367112591889 -0.00885067805141 0.0542791027253
-0.0364220506829 -0.00870604031064 0.0538514960848
-0.0351320610208 -0.00832543181009 0.05194419345
-0.0369429621152 -0.00867858651561 0.0546216850071
-0.0379810659822 -0.0088443370036 0.0561565641608
-0.0380070803057 -0.00877222188701 0.0561950274053
-0.0380353683646 -0.00870051987077 0.0562368524608
-0.0386395998412 -0.00875926287724 0.0571302334865
-0.0392629767734 -0.00881982105121 0.0580519218536
-0.0392898149454 -0.00874503864967 0.058091603192
-0.0393190487761 -0.00867067413969 0.0581348266099
-0.0393474348795 -0.00859600417556 0.0581767966283
-0.0393778112933 -0.00852164816034 0.0582217094022
-0.0387527928769 -0.00830668293858 0.0572975940333
-0.0385758931196 -0.00818942158638 0.0570360404851
-0.0386102484094 -0.00811730154856 0.0570868361904
-0.0386418215267 -0.00804446099386 0.0571335183396
-0.0401156882699 -0.0082687809876 0.0593126907822
-0.04014279307 -0.0081918023352 0.0593527663412
-0.0401723594623 -0.00811520945033 0.0593964814651
-0.0402011073643 -0.00803833128174 0.0594389864175
-0.0402318839677 -0.0079617363282 0.0594844908881
-0.0398096745921 -0.00779630227567 0.0588602370059
-0.0398348515643 -0.00771930070649 0.0588974621922
-0.0398639613588 -0.00764294959291 0.0589405022176
-0.0398937499356 -0.00756660747739 0.0589845458503
-0.0399242216732 -0.00749027099307 0.0590295995645
-0.0399547633427 -0.0074138221366 0.0590747566757
-0.0399847560937 -0.00733714691833 0.0591191021885
-0.0400141960035 -0.00726024801351 0.0591626303028
-0.0400397632612 -0.00718253330913 0.0592004325421
-0.0400586485072 -0.00710352852223 0.0592283551532
-0.0396451895913 -0.00694866847607 0.0586170391845
-0.0396440401855 -0.0068669272664 0.0586153397409
-0.0396745908605 -0.00679061650166 0.0586605101672
-0.0396745908605 -0.00670901391343 0.0586605101672
-0.038812324958 -0.00648337478484 0.0573856146574
-0.0406181719451 -0.00670148775402 0.0600556335095
-0.0410592139186 -0.00668980365816 0.0607077321603
-0.0410861028316 -0.00660967890361 0.0607474885212
-0.0411154965253 -0.00652984134083 0.0607909483033
-0.0411441342942 -0.00644976436535 0.0608332904194
-0.0411748116872 -0.00636988512257 0.0608786482034
-0.04073443755 -0.00621797524949 0.060227536976
-0.0396745908605 -0.00597459061933 0.0586605101672
-0.0395321944929 -0.00587183746415 0.0584499712961
-0.0395563202713 -0.00579406161001 0.0584856422492
-0.0395762444613 -0.00571557972109 0.0585151009814
-0.0395888286232 -0.00563597092621 0.0585337071811
-0.0395888286232 -0.00555454473351 0.0585337071811
-0.0394174766212 -0.00544942928676 0.0582803562168
-0.039436767349 -0.00537098277834 0.0583088783492
-0.0394602086724 -0.00529301365778 0.0583435373074
-0.0394852673993 -0.00521516173364 0.0583805876631
-0.0395130195058 -0.00513755692633 0.0584216202911
-0.0395408302112 -0.00505984545672 0.0584627395598
-0.0395660429435 -0.00498169247882 0.058500017619
-0.0395897156873 -0.0049032450561 0.0585350187418
-0.0396092605264 -0.00482419749645 0.0585639165881
-0.0396215893651 -0.0047442055086 0.0585821452819
-0.0396215893651 -0.00466271193369 0.0585821452819
-0.0396265671688 -0.00458179391384 0.058589505169
-0.0396550067152 -0.00450351990874 0.058631554205
-0.039686101618 -0.00442542501553 0.0586775292943
-0.0397163018894 -0.0043471042896 0.0587221816345
-0.0397465712111 -0.00426866674782 0.0587669360684
-0.0397778821789 -0.00419021441763 0.0588132306188
-0.0398066489992 -0.00411137051834 0.0588557635427
-0.0398297074458 -0.0040318304441 0.0588898564019
-0.039843337156 -0.00395126046974 0.0589100084876
-0.0396065239388 -0.00384631313409 0.0585598704312
-0.0392160551013 -0.00372773401364 0.0579825462366
-0.0398437017789 -0.00370544538406 0.0589105475975
-0.0403741568797 -0.00367173600338 0.059694847225
-0.040401272325 -0.00359110473133 0.0597349385233
-0.0404308653345 -0.00351057704208 0.0597786930019
-0.0404596529333 -0.00342985934264 0.0598212566476
-0.0404904765675 -0.00334919163446 0.0598668306552
-0.0399002517489 -0.00321830414295 0.0589941590481
-0.0399289180914 -0.00313849064632 0.0590365434114
-0.0399596029628 -0.00305871373657 0.0590819122525
-0.0397319991703 -0.00295957110503 0.0587453907084
-0.0397616376292 -0.00287999719917 0.0587892123856
-0.0397913425144 -0.00280030604746 0.058833132277
-0.0398220605292 -0.00272056191684 0.0588785501221
-0.0415906621683 -0.00275584561354 0.0614935001992
-0.0419486249803 -0.00269328483021 0.0620227629015
-0.0419738216592 -0.00260857092723 0.062060017225
-0.042001472626 -0.00252390085538 0.0621009003137
-0.0420285106786 -0.00243908146882 0.0621408771837
-0.0420575049617 -0.00235426036294 0.0621837464207
-0.0417037940899 -0.00224868437937 0.0616607703864
-0.0411748116872 -0.00213547320952 0.0608786482034
-0.0400586485072 -0.00199519247232 0.0592283551532
-0.0373293990513 -0.00178247832867 0.05519304787
-0.0351806451033 -0.00160751590196 0.052016027009
-0.035205078249 -0.00153622262322 0.0520521524173
-0.0352311857084 -0.00146489845371 0.052090753367
-0.0319242377898 -0.00126173521306 0.0472012952076
-0.0278573385831 -0.00104370307916 0.0411882178931
-0.0260489289135 -0.000922371835817 0.0385144100099
-0.0260489289135 -0.000868794471213 0.0385144100099
-0.0251780973501 -0.000787963902077 0.0372268498191
-0.0251908081606 -0.000736549310414 0.0372456432738
-0.0252043541256 -0.000685105132815 0.0372656715388
-0.0224326487872 -0.000563625186943 0.0331675914917
-0.0209120410232 -0.000482407757795 0.0309193105323
-0.0223921210056 -0.00047049481308 0.0331076695039
-0.0304325335771 -0.000576843383297 0.0449957493346
-0.0365868572091 -0.000618245771581 0.0540951692948
-0.0379810659822 -0.000563685800793 0.0561565641608
-0.0380070803057 -0.000485899028238 0.0561950274053
-0.0380353683646 -0.000408029635114 0.0562368524608
-0.0380627914168 -0.000330036376054 0.0562773985684
-0.0380921217451 -0.000251942924485 0.0563207646621
-0.0363310810449 -0.000165569659343 0.0537169937432
-0.0340861500484 -8.52306587302e-05 0.0503977711707
-0.0341132220394 -1.51343705499e-05 0.0504377982198
-0.0341370742415 5.50680868323e-05 0.0504730646792
-0.0341551134038 0.000125347328974 0.0504997363207
-0.0311195738501 0.000178213724002 0.0460115665628
-0.026447295544 0.000205853522568 0.0391034114154
-0.0235435026783 0.000231675952141 0.0348100345405
-0.0241816856659 0.000287692710376 0.035753614268
-0.0246872619168 0.000344484309562 0.0365011294952
-0.0246979371237 0.00039543191909 0.0365169132266
-0.0247108282977 0.000446463479128 0.0365359733561
-0.0249454604072 0.000502010454005 0.0368828865554
-0.0252072712838 0.000559125465672 0.0372699846769
-0.0257417112039 0.000623925420822 0.0380601760232
-0.0265701624115 0.000698654787395 0.0392850751193
-0.0271399361206 0.000769458168586 0.0401275089223
-0.0271528751173 0.000825672966768 0.0401466397597
-0.0271685096022 0.000882028500039 0.0401697559869
-0.0271851300229 0.00093848238362 0.0401943299607
-0.0272035354968 0.000995069931797 0.040221543209
-0.0272219784053 0.00105173463893 0.0402488118058
-0.0281090380945 0.00114382122148 0.0415603659463
-0.0300888325242 0.00128627022414 0.0444875732282
-0.0318410488738 0.00142666646026 0.0470782969826
-0.0332920347474 0.00156015413493 0.0492236391209
-0.0333133178216 0.00162967025646 0.0492551070192
-0.0333363586768 0.00169936353305 0.0492891738688
-0.033358599972 0.00176910918726 0.0493220585362
-0.0333823525698 0.0018390295906 0.0493571777264
-0.0322854725705 0.00184500728012 0.04773539565
-0.0317279802097 0.0018784064691 0.0469111203243
-0.0317519796767 0.00194513470435 0.0469466045208
-0.0317731783416 0.00201178432511 0.0469779476165
-0.0317892774568 0.00207818777133 0.0470017508187
-0.0292354168855 0.00197136337231 0.0432257631965
-0.0295461319681 0.00205308549664 0.0436851681926
-0.0295613990686 0.00211494817205 0.0437077412271
-0.0295798582877 0.00217710859339 0.0437350339398
-0.0295994941977 0.00223943397437 0.0437640664382
-0.0304916838141 0.00236965032953 0.0450832053866
-0.0305078756478 0.00243365718597 0.0451071456769
-0.0305274580186 0.00249800809072 0.0451360990155
-0.0305482941573 0.00256254472177 0.0451669061013
-0.0305713732848 0.0026273598308 0.0452010295381
-0.0305945048001 0.00269227448806 0.0452352304324
-0.0306154786208 0.00275708998689 0.0452662410868
-0.0306352690623 0.00282188275982 0.0452955020664
-0.0306516908403 0.00288643971885 0.0453197823387
-0.030662321004 0.00295050692759 0.0453354994719
-0.030662321004 0.00301357310423 0.0453354994719
-0.0290816744093 0.0029180381299 0.0429984486384
-0.0279565455649 0.00286264430771 0.0413348994856
-0.0279780939358 0.00292239604508 0.041366759636
-0.0280012310738 0.00298240564298 0.0414009688436
-0.0280241618091 0.00304248800924 0.0414348728764
-0.028042617186 0.0031021696239 0.0414621599084
-0.028055516421 0.00316130108932 0.0414812319563
-0.0275469166623 0.00316065039048 0.0407292463488
-0.0275603019962 0.003218872136 0.0407490371141
-0.0275689948153 0.00327659123521 0.0407618898037
-0.0275154716883 0.00332682372582 0.0406827536647
-0.0275341524592 0.00338571453725 0.0407103739508
-0.02755287133 0.00344468695707 0.0407380505692
-0.0275714254461 0.00350371544208 0.040765483591
-0.027589813705 0.0035627988333 0.0407926713862
-0.0276061137459 0.00362168391017 0.0408167716653
-0.0276185654195 0.00368012325091 0.0408351819755
-0.0270253855601 0.00365666885915 0.0399581412193
-0.026631102569 0.00365809519043 0.0393751776422
-0.0266487713615 0.00371533332579 0.0394013016767
-0.0266647877523 0.00377241036928 0.0394249825676
-0.026853333306 0.00385431678015 0.0397037549035
-0.0277231755301 0.00403618805889 0.0409898523156
-0.0280196512998 0.00413698239628 0.0414282039034
-0.0280334332008 0.00419667632288 0.0414485810094
-0.0280500899588 0.00425686322905 0.0414732087095
-0.0280678012176 0.0043172808536 0.0414993955322
-0.0280874159058 0.00437806802821 0.0415283966533
-0.0281070717736 0.0044389423932 0.0415574586602
-0.028124891258 0.00449960381783 0.041583805499
-0.0284709390298 0.00461352574905 0.0420954513254
-0.0345028731055 0.00566192584241 0.0510139133059
-0.0406181719451 0.00674899049896 0.0600556335095
-0.0406452559111 0.00683708973684 0.0600956782643
-0.0406748300794 0.00692572439522 0.0601394048853
-0.0417300933987 0.00719123496758 0.0616996549933
-0.0417560396167 0.00728158991592 0.061738017541
-0.0417844732571 0.00737249047956 0.0617800578448
-0.0418122402576 0.00746338901397 0.0618211124942
-0.0418420050752 0.00755476248542 0.0618651209979
-0.0401456124986 0.00733104254889 0.059356934982
-0.040174781423 0.00741900050293 0.0594000624333
-0.0402033846909 0.00750697282394 0.0594423535383
-0.0402281756341 0.00759434311008 0.0594790079647
-0.0402464269235 0.00768056735845 0.0595059932448
-0.03811727958 0.00735264360829 0.056357961553
-0.038150512648 0.00743752197889 0.0564070980073
-0.0381849753514 0.00752277930597 0.0564580525282
-0.0382166483452 0.0076076230632 0.0565048823489
-0.0388264343471 0.00780886863016 0.0574064759681
-0.0390284327571 0.00792976862267 0.0577051389038
-0.0417300933987 0.00856452040985 0.0616996549933
-0.0418495914219 0.00867512183797 0.0618763377228
-0.0418751856268 0.00876655609955 0.0619141798047
-0.0419032527444 0.00885861843503 0.0619556781895
-0.0419306793929 0.00895065951063 0.0619962296145
-0.0419600847786 0.00904323986588 0.0620397066834
-0.04073443755 0.0088628707832 0.060227536976
-0.0420836030672 0.00924297541017 0.0622223335402
-0.0421078731977 0.00933491330416 0.0622582179239
-0.0421345481831 0.00942748911525 0.062297657984
-0.0421606691016 0.00952004954589 0.0623362788337
-0.0421886912285 0.00961315063833 0.0623777106979
-0.0421886912285 0.00969992422121 0.0623777106979
-0.0404308653345 0.0093789271358 0.0597786930019
-0.0404596529333 0.00946882242447 0.0598212566476
-0.0404904765675 0.00955931681725 0.0598668306552
-0.0403108726597 0.00959982577548 0.0596012789097
-0.0400586485072 0.00962215241539 0.0592283551532
-0.0403741568797 0.00978097949242 0.059694847225
-0.0419486249803 0.0102486874636 0.0620227629015
-0.0419738216592 0.0103411750355 0.062060017225
-0.042001472626 0.010434375972 0.0621009003137
-0.0420285106786 0.0105275371273 0.0621408771837
-0.0420575049617 0.0106213035373 0.0621837464207
-0.0402653804497 0.010251533822 0.059534016811
-0.0402935442317 0.0103415799483 0.059575658118
-0.0403211323189 0.0104315929893 0.0596164482366
-0.0403481409986 0.0105215684247 0.0596563816775
-0.0403714710955 0.0106106881342 0.0596908761829
-0.040388550887 0.0106982482135 0.0597161293553
-0.0397822367794 0.0106194697923 0.0588196690743
-0.0396717687248 0.0106715782349 0.0586563375239
-0.0396065239388 0.0107354901856 0.0585598704312
-0.0386660854391 0.0105601092587 0.0571693935295
-0.0386949098588 0.0106475690899 0.0572120116165
-0.038722874995 0.0107349092792 0.0572533592176
-0.0387527928769 0.01082290987 0.0572975940333
-0.037750705209 0.0106206915991 0.0558159663074
-0.037403071168 0.0105998196163 0.0553019751168
-0.0373200108654 0.0106530404892 0.0551791670519
-0.0373476561394 0.0107377484201 0.0552200417236
-0.037374435979 0.0108223194732 0.055259636815
-0.037403071168 0.0109075417477 0.0553019751168
-0.037403071168 0.0109844722805 0.0553019751168
-0.0366924724084 0.0108512537835 0.0542513256996
-0.035784426737 0.0106563140713 0.0529087429235
-0.0358641491159 0.0107538200359 0.0530266157312
-0.0386395998412 0.0116655092691 0.0571302334865
-0.0401601218068 0.0122071645017 0.0593783875894
-0.0401831270863 0.0122968057844 0.0594124018389
-0.0402098592065 0.0123876898513 0.0594519263753
-0.0402372756418 0.0124788961119 0.0594924626995
-0.0402653804497 0.0125704300553 0.059534016811
-0.0402935442317 0.0126620981429 0.059575658118
-0.0403211323189 0.0127536999908 0.0596164482366
-0.0403481409986 0.0128452308647 0.0596563816775
-0.0420267475959 0.0134660724213 0.0621382703936
-0.0420515024038 0.0135604956888 0.0621748713925
-0.0420786887918 0.013655809909 0.0622150675825
-0.0421052911039 0.0137510452114 0.0622544001923
-0.042133823774 0.0138470243452 0.0622965869155
-0.0421345481831 0.0139339246394 0.062297657984
-0.0421606691016 0.0140292787926 0.0623362788337
-0.0421886912285 0.0141253769483 0.0623777106979
-0.0413694839191 0.0139361832694 0.0611664790843
-0.0404904765675 0.0137233518017 0.0598668306552
-0.0417300933987 0.0142293228592 0.0616996549933
-0.0420267475959 0.0144169178957 0.0621382703936
-0.0420515024038 0.014511901235 0.0621748713925
-0.0421325647709 0.0146265338608 0.0622947254277
-0.0421557450563 0.0147212868339 0.0623289984307
-0.0421812651155 0.0148169570505 0.0623667308851
-0.0422062941355 0.0149125587497 0.0624037373179
-0.0422331567244 0.0150089150259 0.0624434547576
-0.0422331567244 0.0150957800653 0.0624434547576
-0.0420515024038 0.015117341128 0.0621748713925
-0.0420786887918 0.0152136618522 0.0622150675825
-0.0421052911039 0.0153098820347 0.0622544001923
-0.042133823774 0.015406917515 0.0622965869155
-0.042133823774 0.0154935782466 0.0622965869155
-0.0420361818147 0.0155441329494 0.0621522192731
-0.0420602498444 0.0156395422268 0.0621878048424
-0.0419402021441 0.0156811665838 0.0620103093927
-0.0419634921757 0.015776184968 0.0620447446598
-0.0418460596247 0.0158181050314 0.0618711158158
-0.0402440220411 0.0152952973431 0.0595024375277
-0.0402504560674 0.0153805297099 0.0595119504994
-0.0402747919415 0.0154726660297 0.0595479320877
-0.0402957015196 0.0155635791046 0.0595788477566
-0.0403108726597 0.015652350009 0.0596012789097
-0.0397009406307 0.0154971756614 0.0586994693833
-0.0386139651248 0.0151522982376 0.0570923315066
-0.0386268359045 0.0152367963597 0.0571113614824
-0.0386358092269 0.0153198020142 0.0571246289078
-0.0337629051959 0.0134570502676 0.0499198403956
-0.0337629051959 0.0135264937172 0.0499198403956
-0.0326606839654 0.013152085238 0.0482901610897
-0.0322920549191 0.0130700607307 0.0477451279224
-0.0326544838435 0.0132839158228 0.048280993955
-0.0330189158063 0.0135000807608 0.0488198215622
-0.0337523316071 0.0138693661105 0.0499042069108
-0.0348574617112 0.0143951762541 0.0515381871058
-0.0355917373859 0.014771616968 0.0526238438132
-0.0355958030315 0.0148465176792 0.052629855037
-0.0356006711608 0.0149217714702 0.0526370527659
-0.0356058015006 0.0149971557297 0.0526446381837
-0.0356114234857 0.0150727691854 0.0526529505193
-0.0344890442696 0.0146686517714 0.0509934668047
-0.0344917784285 0.0147407572398 0.0509975093708
-0.0344951852109 0.014813162798 0.0510025464382
-0.0344988864989 0.0148857094448 0.0510080189444
-0.0345029772872 0.0149584401813 0.0510140673427
-0.0333940246494 0.014546348968 0.0493744353749
-0.0333865994467 0.0146117840343 0.0493634569081
-0.0333887621158 0.0146814044486 0.0493666545032
-0.0333912428371 0.0147511742644 0.0493703223514
-0.0333940246494 0.0148210879165 0.0493744353749
-0.0333940246494 0.0148897726536 0.0493744353749
-0.0330264887274 0.0147938240323 0.0488310184368
-0.0330264887274 0.0148617528225 0.0488310184368
-0.0321067151177 0.0145138963544 0.0474710954227
-0.0321094399634 0.0145811707325 0.0474751242188
-0.0321118448152 0.0146483103494 0.0474786798909
-0.0329744967862 0.0151096441255 0.0487541462188
-0.036617952325 0.0168544717825 0.0541411446992
-0.0370686251314 0.0171381496232 0.0548074829315
-0.0375014312992 0.0174153842157 0.0554474046058
-0.0375113709015 0.017497153376 0.0554621007155
-0.0375233892674 0.0175799373374 0.0554798703626
-0.0375359313609 0.0176630171842 0.0554984143624
-0.0375489987428 0.0177463968858 0.0555177350226
-0.0375620797817 0.0178298368239 0.0555370758751
-0.0375746607248 0.0179130921598 0.0555556773157
-0.0375867400459 0.0179961590769 0.0555735370874
-0.0375967476529 0.0180782795062 0.0555883337449
-0.0376035505274 0.0181588935256 0.055598392074
-0.0371445183711 0.0180136239429 0.0549196941998
-0.0371570036377 0.0180961032258 0.0549381541787
-0.0371668020325 0.0181773197886 0.0549526415074
-0.0391390311844 0.019222387012 0.0578686632156
-0.0394557323424 0.0194590811725 0.0583369188699
-0.0394792075207 0.0195518595656 0.058371627884
-0.039508582062 0.0196476682868 0.0584150593483
-0.040044500577 0.0199965446659 0.0592074368579
-0.0400644898255 0.0200889309899 0.0592369917819
-0.040087865823 0.0201831046737 0.0592715541532
-0.0401119077994 0.0202777111881 0.0593071012015
-0.040136619254 0.0203727564188 0.0593436381008
-0.0421325647709 0.02147252709 0.0622947254277
-0.0421557450563 0.0215710465577 0.0623289984307
-0.0421812651155 0.0216708634517 0.0623667308851
-0.0422062941355 0.0217705320407 0.0624037373179
-0.0422331567244 0.0218712531379 0.0624434547576
-0.0407083883044 0.0211653513619 0.0601890220977
-0.0407245288978 0.0212575053747 0.0602128866272
-0.0407419205691 0.0213503813978 0.0602386009266
-0.040321676496 0.021213090357 0.0596172528248
-0.040343234551 0.0213074098257 0.0596491272935
-0.0403589142026 0.021398701187 0.0596723103017
-0.0401445383605 0.0213676061399 0.0593553468248
-0.0401586432873 0.0214577119105 0.0593762015377
-0.0350531284693 0.0188018118958 0.0518274884345
-0.0330264887274 0.0177826908029 0.0488310184368
-0.0330264887274 0.0178506195931 0.0488310184368
-0.0326606839654 0.0177200807115 0.0482901610897
-0.032296963251 0.0175891720456 0.0477523850924
-0.032296963251 0.0176556003499 0.0477523850924
-0.032296963251 0.0177220286542 0.0477523850924
-0.032296963251 0.0177884569584 0.0477523850924
-0.0319356473461 0.0176551372562 0.0472181647047
-0.031577026467 0.017521826694 0.0466879290232
-0.031574471211 0.0175853510886 0.0466841509723
-0.031574594604 0.0176503623506 0.0466843334139
-0.031931952914 0.0179158050536 0.0472127023352
-0.0319323358138 0.0179816982237 0.0472132684684
-0.0319331467061 0.0180478348598 0.0472144674058
-0.0319342955758 0.0181141665434 0.0472161660569
-0.0319356473461 0.0181806184619 0.0472181647047
-0.0319356473461 0.0182463036126 0.0472181647047
-0.035340564843 0.0202643778998 0.0522524749045
-0.0397543775336 0.0228770370318 0.0587784780365
-0.0397722813626 0.0229691434793 0.0588049495821
-0.0397933184274 0.0230631395153 0.0588360537454
-0.040126842419 0.0233389738488 0.0593291826493
-0.0401503576401 0.02343523215 0.0593639508683
-0.0401776524623 0.0235338010602 0.0594043073827
-0.0402056324322 0.0236328849804 0.0594456769159
-0.0402343016928 0.0237324905818 0.0594880655938
-0.0402630323702 0.0238322504704 0.059530545079
-0.0402911912218 0.0239317888977 0.0595721790964
-0.0403187744728 0.0240311000851 0.0596129620645
-0.0403426289409 0.0241282946122 0.0596482318741
-0.0403601269177 0.024221772475 0.0596741033506
-0.0388097502385 0.0233711514378 0.0573818078291
-0.0311633344428 0.0188305922978 0.0460762683943
-0.0301748829347 0.0182953794122 0.0446148022901
-0.030174426803 0.0183571655315 0.0446141278807
-0.0301756368643 0.0184199668605 0.044615917006
-0.0301756368643 0.0184820320266 0.044615917006
-0.0301756368643 0.0185440971926 0.044615917006
-0.0333849948805 0.0205850381181 0.0493610844912
-0.0380662504983 0.0235497738958 0.0562825129623
-0.0401825436182 0.0249416708722 0.0594115391574
-0.0409022474483 0.0254725252247 0.0604756507946
-0.040917545625 0.0255662115017 0.0604982697765
-0.0409346164685 0.0256610719577 0.060523509719
-0.0409515661721 0.0257559264469 0.060548570551
-0.0409698213105 0.0258516743808 0.0605755615221
-0.0412545098459 0.0261161630422 0.0609964852005
-0.04128123299 0.0262179872511 0.0610359964654
-0.0413104625542 0.0263215183874 0.061079213575
-0.0441296166778 0.0282085461333 0.0652474485977
-0.0441623299969 0.0283202901081 0.065295816582
-0.0441997347682 0.0284351868223 0.0653511210708
-0.0442356179459 0.0285492553823 0.065404175821
-0.0458332854501 -0.0174962284023 0.0679060617666
-0.0458582959911 -0.0174112602182 0.0679431170927
-0.0458790315302 -0.0173245746374 0.067973838626
-0.0458911104223 -0.0172345525519 0.0679917345718
-0.0428530689631 -0.0160052846812 0.0634906077389
-0.0376774676273 -0.013994583602 0.0558224970954
-0.0348648218658 -0.0128780218009 0.0516553139024
-0.0335514493212 -0.0123237505313 0.049709436441
-0.0335564525015 -0.0122564271761 0.0497168490947
-0.0335619130699 -0.0121892493148 0.0497249394091
-0.0335673763048 -0.0121220499076 0.0497330336744
-0.0335728422086 -0.0120548289389 0.0497411318938
-0.0335783107834 -0.0119875863928 0.0497492340705
-0.0335833259918 -0.0119201603857 0.0497566645449
-0.0335871941468 -0.0118523089314 0.0497623955582
-0.0335894314451 -0.0117838693938 0.0497657103133
-0.0335894314451 -0.0117146403545 0.0497657103133
-0.03337955246 -0.0115726465495 0.0494547560541
-0.0333840742273 -0.0115054084495 0.0494614554518
-0.0332503301883 -0.0113907850807 0.0492633018418
-0.033673579083 -0.0114663777775 0.0498903824733
-0.0336776907645 -0.011398366924 0.0498964742927
-0.0336827860331 -0.0113306699942 0.0499040233833
-0.033688335075 -0.0112631037724 0.0499122447791
-0.0336944714185 -0.0111957098206 0.0499213363142
-0.0337006111164 -0.0111282916821 0.0499304328191
-0.0337061689742 -0.0110606573048 0.0499386672764
-0.0337112771815 -0.0109928533918 0.0499462355369
-0.0337154026894 -0.0109247100011 0.0499523478413
-0.0337177100853 -0.010855964234 0.0499557664522
-0.0337177100853 -0.0107864708077 0.0499557664522
-0.0330717018308 -0.0105116474276 0.0489986481483
-0.0334161496277 -0.0105522562505 0.0495089779914
-0.0350488407147 -0.0109955956139 0.051927954085
-0.0357783101259 -0.0111507058854 0.0530087274663
-0.035787698552 -0.0110798721444 0.0530226372491
-0.0358000048619 -0.0110098970666 0.0530408701346
-0.0364462032938 -0.0111335113248 0.053998270203
-0.0372521652002 -0.0113029368458 0.0551923739741
-0.0390502824799 -0.0117680319823 0.0578564435877
-0.0399222419077 -0.0119485208853 0.0591483285177
-0.039946616331 -0.0118734845958 0.0591844413792
-0.039974850829 -0.0117994872221 0.0592262732825
-0.0400037678116 -0.011725573508 0.0592691163471
-0.0400333715531 -0.0116517404777 0.0593129769056
-0.0396874525009 -0.0114692632159 0.0588004672679
-0.0397157788321 -0.0113955935685 0.0588424352302
-0.0397441659025 -0.0113218244606 0.058884493183
-0.0397735025492 -0.0112482068855 0.0589279580169
-0.0398004516224 -0.011173798082 0.0589678854498
-0.0398220152751 -0.0110977773595 0.0589998339064
-0.0398347273525 -0.0110192191968 0.0590186679723
-0.0398286843066 -0.0109354591824 0.0590097146657
-0.0394904943602 -0.0107612135942 0.0585086563811
-0.0394568285798 -0.010670717665 0.0584587775531
-0.0394317492371 -0.0105826649306 0.0584216202911
-0.0394595027415 -0.0105087859267 0.0584627395598
-0.0394846636163 -0.0104341073998 0.058500017619
-0.0395082876701 -0.0103589222094 0.0585350187418
-0.0395277923094 -0.0102825680344 0.0585639165881
-0.0395400957902 -0.0102042750272 0.0585821452819
-0.0395513793042 -0.0101256701794 0.0585988628049
-0.039542743971 -0.0100419603883 0.0585860687958
-0.0395547748399 -0.00996349182306 0.0586038935911
-0.0392002280711 -0.00979339158742 0.0580786012288
-0.0373490393707 -0.00925393145216 0.0553359016166
-0.0365959120973 -0.00899190440959 0.0542200770222
-0.0366208576469 -0.00892255680901 0.0542570360578
-0.036635751573 -0.00885067805141 0.0542791027253
-0.0363471379102 -0.00870604031064 0.0538514960848
-0.0341702309931 -0.00811419106596 0.0506262161573
-0.0337400630788 -0.00794250228485 0.049988884387
-0.0324382600802 -0.00756919789776 0.0480601482302
-0.035774313006 -0.00827390591118 0.0530028053801
-0.0368692753383 -0.00845116058037 0.0546250888153
-0.0378159634284 -0.00859021997119 0.0560276908608
-0.038219244831 -0.00860305754266 0.0566251878886
-0.0383404447116 -0.0085513182858 0.0568047562198
-0.0383653672481 -0.00847780450424 0.0568416811596
-0.0383964709113 -0.00840554112791 0.0568877639845
-0.0384304886086 -0.00833378145821 0.0569381642086
-0.0384634769209 -0.00826166046106 0.0569870393078
-0.0384965503298 -0.00818942158638 0.0570360404851
-0.0385308349577 -0.00811730154856 0.0570868361904
-0.0385623431355 -0.00804446099386 0.0571335183396
-0.038587701192 -0.00797022026367 0.0571710885406
-0.0386723095273 -0.00790799092724 0.0572964432645
-0.0389489663187 -0.00788428845455 0.0577063347436
-0.0393076002779 -0.00787587094519 0.0582376826395
-0.0396043746733 -0.0078537081182 0.0586773801263
-0.039727794164 -0.00779630227567 0.0588602370059
-0.0397529193523 -0.00771930070649 0.0588974621922
-0.0397819692739 -0.00764294959291 0.0589405022176
-0.0398116965816 -0.00756660747739 0.0589845458503
-0.039842105645 -0.00749027099307 0.0590295995645
-0.0394255187953 -0.0073306957069 0.0584123893411
-0.0394562027907 -0.00725508035427 0.0584578503912
-0.0394887833607 -0.00717968334715 0.0585061213842
-0.0395207015685 -0.00710403297779 0.058553411029
-0.0395462375207 -0.00702711695271 0.0585912447983
-0.0395636474755 -0.00694866847607 0.0586170391845
-0.0394280162942 -0.00684358463652 0.0584160896065
-0.0389519900959 -0.00668067853073 0.0577108147367
-0.0387046630458 -0.00655848760653 0.0573443778607
-0.0387324958759 -0.00648337478484 0.0573856146574
-0.0387586766212 -0.0064078740992 0.0574244037446
-0.0387803319532 -0.00633152664654 0.0574564880324
-0.0392998262695 -0.00633534426221 0.0582261647592
-0.0393194458789 -0.00625746824181 0.058255232944
-0.0393432820468 -0.00618017369899 0.0582905483327
-0.0393687579605 -0.00610303509889 0.0583282931495
-0.0393969732079 -0.00602621049716 0.0583700965314
-0.0394252492073 -0.00594927875761 0.0584119899227
-0.0394508847851 -0.00587183746415 0.0584499712961
-0.0394749609417 -0.00579406161001 0.0584856422492
-0.0394948441516 -0.00571557972109 0.0585151009814
-0.0395074024305 -0.00563597092621 0.0585337071811
-0.0395074024305 -0.00555454473351 0.0585337071811
-0.0393364028648 -0.00544942928676 0.0582803562168
-0.0393556539155 -0.00537098277834 0.0583088783492
-0.0393790470248 -0.00529301365778 0.0583435373074
-0.039404054211 -0.00521516173364 0.0583805876631
-0.0394317492371 -0.00513755692633 0.0584216202911
-0.0394595027415 -0.00505984545672 0.0584627395598
-0.0394846636163 -0.00498169247882 0.058500017619
-0.0395082876701 -0.0049032450561 0.0585350187418
-0.0395277923094 -0.00482419749645 0.0585639165881
-0.0395400957902 -0.0047442055086 0.0585821452819
-0.0395400957902 -0.00466271193369 0.0585821452819
-0.0395450633556 -0.00458179391384 0.058589505169
-0.0395734444076 -0.00450351990874 0.058631554205
-0.0396044753545 -0.00442542501553 0.0586775292943
-0.03963461351 -0.0043471042896 0.0587221816345
-0.0396648205739 -0.00426866674782 0.0587669360684
-0.0396960671414 -0.00419021441763 0.0588132306188
-0.0397247747941 -0.00411137051834 0.0588557635427
-0.0397477858142 -0.0040318304441 0.0588898564019
-0.0397613874909 -0.00395126046974 0.0589100084876
-0.0395250613504 -0.00384631313409 0.0585598704312
-0.0391353956282 -0.00372773401364 0.0579825462366
-0.0391615263806 -0.00364950969669 0.058021261255
-0.0391916394611 -0.00357154057711 0.0580658764443
-0.0392224088759 -0.00349350578833 0.0581114640507
-0.0392538390489 -0.00341540165711 0.058158030629
-0.0392747082813 -0.00333627084761 0.0581889502406
-0.0395354448686 -0.00327693566393 0.0585752545307
-0.0395697571531 -0.00319822496457 0.0586260912117
-0.0395919823707 -0.00311842080238 0.0586590198352
-0.039619831028 -0.00303895636042 0.0587002800814
-0.0396502785048 -0.00295957110503 0.0587453907084
-0.0396798560034 -0.00287999719917 0.0587892123856
-0.0397094997917 -0.00280030604746 0.058833132277
-0.0397401546258 -0.00272056191684 0.0588785501221
-0.0397683173468 -0.00264052595411 0.0589202756815
-0.0397908790144 -0.00256001354936 0.0589537027854
-0.0398116965816 -0.00247929952876 0.0589845458503
-0.039842105645 -0.00239907724495 0.0590295995645
-0.037965991102 -0.00220785843305 0.0562499701142
-0.0379944944118 -0.00213120796839 0.056292200286
-0.038014130103 -0.00205396088017 0.0563212922973
-0.0334163137793 -0.0017366616804 0.0495092211965
-0.0288539716753 -0.00144008551218 0.0427497082862
-0.0288782974963 -0.00138178037923 0.0427857491393
-0.0288978729154 -0.00132315746509 0.0428147518522
-0.0289115440239 -0.00126419568581 0.0428350068073
-0.027699531045 -0.00115410906705 0.0410393024976
-0.0251717942321 -0.000996910189981 0.0372942370837
-0.0224817850161 -0.000844038599332 0.0333087507678
-0.0207881129285 -0.000737607639154 0.030799425934
-0.0204251045924 -0.000682630427614 0.0302615970123
-0.0202360504591 -0.000634604785912 0.0299814966108
-0.0200497951102 -0.000587440440889 0.0297055428558
-0.0196855198986 -0.000536194942142 0.0291658369461
-0.0196855198986 -0.000495622369963 0.0291658369461
-0.0195026373238 -0.000450822290506 0.0288948802539
-0.022142612155 -0.000466211128837 0.0328062362081
-0.0295637033316 -0.000561529809992 0.04380123844
-0.0331899864757 -0.000562001274314 0.0491738973001
-0.0338562360354 -0.00050350384911 0.050161004886
-0.0338796491744 -0.000434024856456 0.0501956935201
-0.0339063415523 -0.000364484604129 0.0502352406361
-0.0339334770865 -0.000294838174337 0.0502754443275
-0.0339610587701 -0.000225082846834 0.0503163090286
-0.0309498466853 -0.000141336753762 0.0458549322843
-0.0263156257811 -6.59364818729e-05 0.0389889245811
-0.0241429836733 -1.07331386169e-05 0.0357699633455
-0.0236505030176 3.82303478466e-05 0.0350403097433
-0.0237487309669 8.73361283683e-05 0.0351858431286
-0.0239881459882 0.000137657019797 0.035540557635
-0.024230792803 0.000188990003983 0.035900060329
-0.0247257673919 0.000243811303328 0.0366334089135
-0.0252335696285 0.000300825850677 0.0373857627914
-0.0254922272255 0.00035644988377 0.0377689868737
-0.025503799679 0.000409175956118 0.037786132486
-0.0257540128424 0.000466270264133 0.0381568453939
-0.0262867908161 0.00053009411389 0.0389462030328
-0.0268314577821 0.000596378367855 0.0397531752643
-0.0276693715357 0.000672030118724 0.04099461852
-0.0279538439049 0.000736553235402 0.0414160894682
-0.0282406912406 0.000802316440533 0.041841079139
-0.0282548603217 0.000860953277655 0.0418620718845
-0.0282730373235 0.0009197789065 0.0418890027186
-0.0297048338134 0.00102758087543 0.0440103357176
-0.0305997921661 0.00112160750081 0.0453362955867
-0.0308993260383 0.00119627127629 0.0457800814822
-0.0309160406887 0.00126063746988 0.0458048457135
-0.0309375120974 0.00132527632868 0.0458366575025
-0.0309612957807 0.00139010751123 0.0458718951306
-0.0315211248284 0.00148020903119 0.0467013313256
-0.0315419498291 0.00154619606334 0.0467321854041
-0.031565626712 0.00161241461563 0.046767264798
-0.0315896635411 0.00167874989415 0.0468028774839
-0.031614062623 0.00174520425182 0.0468390268795
-0.031085805673 0.00178011163925 0.0460563675365
-0.0301791753277 0.00179039432651 0.0447131145792
-0.0301791753277 0.00185259470403 0.0447131145792
-0.0301791753277 0.00191479508154 0.0447131145792
-0.0298785471104 0.00195730172608 0.0442677073147
-0.0298311738161 0.00201568150174 0.0441975195938
-0.0298513980156 0.00207857286006 0.0442274835321
-0.0298672085101 0.00214123115796 0.0442509081765
-0.0298785471104 0.0022036248134 0.0442677073147
-0.0295386140403 0.00223943397437 0.0437640664382
-0.0304289686036 0.00236965032953 0.0450832053866
-0.0304451271339 0.00243365718597 0.0451071456769
-0.0304646692278 0.00249800809072 0.0451360990155
-0.0304854625108 0.00256254472177 0.0451669061013
-0.0305084941692 0.0026273598308 0.0452010295381
-0.0305315781076 0.00269227448806 0.0452352304324
-0.0305525087895 0.00275708998689 0.0452662410868
-0.0305722585261 0.00282188275982 0.0452955020664
-0.0305886465277 0.00288643971885 0.0453197823387
-0.0305992548273 0.00295050692759 0.0453354994719
-0.0305992548273 0.00301357310423 0.0453354994719
-0.0290218593022 0.0029180381299 0.0429984486384
-0.0280664246471 0.00287981871239 0.0415828877842
-0.0280844350578 0.00293954975282 0.041609571799
-0.0280985242235 0.00299893652162 0.0416304461426
-0.0281086435111 0.00305794948252 0.0416454387613
-0.0280465586604 0.00310900022622 0.0415534545698
-0.0280664246471 0.00316904832016 0.0415828877842
-0.0280844350578 0.00322896496114 0.041609571799
-0.0280985242235 0.00328849692135 0.0416304461426
-0.0281086435111 0.00334761416336 0.0416454387613
-0.0281086435111 0.00340554709952 0.0416454387613
-0.0279538439049 0.0034444059973 0.0414160894682
-0.0279677373444 0.00350376043721 0.0414366738262
-0.027985558317 0.00356367227776 0.0414630771717
-0.0280052948707 0.00362390545521 0.0414923186196
-0.0280259039826 0.00368433469623 0.0415228528398
-0.0282406912406 0.00377077609878 0.041841079139
-0.0288209065109 0.00390764900094 0.0427007193239
-0.0288356343613 0.00396907715011 0.0427225399356
-0.0288545334601 0.00403114875657 0.0427505406201
-0.0300022603032 0.00425332872494 0.0444509993399
-0.0300181239622 0.00431744611217 0.0444745027522
-0.0300384925699 0.00438228611309 0.0445046806441
-0.0300610535523 0.00444753443685 0.0445381067328
-0.0300846047753 0.0045130243057 0.0445729999505
-0.0301082114386 0.00457861968531 0.0446079753078
-0.0301309299959 0.00464417548672 0.0446416348577
-0.030151529257 0.00470949391391 0.0446721544829
-0.0301676310007 0.00477418549708 0.0446960106388
-0.0301791753277 0.00483821282476 0.0447131145792
-0.0301676310007 0.00489853866556 0.0446960106388
-0.0354181054773 0.00582409457196 0.0524750524555
-0.0392747082813 0.00653921454773 0.0581889502406
-0.0393745799018 0.00663699555117 0.0583369188699
-0.0395354448686 0.00674559500602 0.0585752545307
-0.0399222419077 0.00689387207038 0.0591483285177
-0.039946616331 0.00698041253496 0.0591844413792
-0.039974850829 0.00706773595149 0.0592262732825
-0.0400037678116 0.00715529782571 0.0592691163471
-0.0400333715531 0.0072431031508 0.0593129769056
-0.0397094997917 0.00726634884598 0.058833132277
-0.0397401546258 0.00735386420608 0.0588785501221
-0.0397683173468 0.00744103962901 0.0589202756815
-0.0397908790144 0.00752727158508 0.0589537027854
-0.0398042037506 0.00761183014681 0.0589734445592
-0.0380388800653 0.00735264360829 0.056357961553
-0.0380720447796 0.00743752197889 0.0564070980073
-0.0381064366002 0.00752277930597 0.0564580525282
-0.0381380444491 0.0076076230632 0.0565048823489
-0.0387465762449 0.00780886863016 0.0574064759681
-0.0389481591851 0.00792976862267 0.0577051389038
-0.0393076002779 0.00808396451557 0.0582376826395
-0.0393335423005 0.00817036758846 0.0582761180379
-0.0393634611079 0.00825771185072 0.0583204453944
-0.0393940427898 0.00834531986525 0.058365754858
-0.0394252917734 0.0084331966777 0.0584120529882
-0.03946412691 0.00852284063856 0.0584695906741
-0.0400775205799 0.00873791297043 0.0593783875894
-0.0401004785422 0.00882556693091 0.0594124018389
-0.0401271556799 0.00891414173076 0.0594519263753
-0.0401545157251 0.00900297960933 0.0594924626995
-0.0401825627271 0.00909208570532 0.059534016811
-0.0401173454582 0.00916001233829 0.0594373916652
-0.039842105645 0.00917928273061 0.0590295995645
-0.0396960671414 0.00922745173731 0.0588132306188
-0.0397247747941 0.00931599910924 0.0588557635427
-0.0397477858142 0.0094033171375 0.0588898564019
-0.0397613874909 0.00948848461408 0.0589100084876
-0.0397306980536 0.00956304743331 0.0588645393749
-0.0397423635845 0.00964776574413 0.0588818228895
-0.03946412691 0.0096615586425 0.0584695906741
-0.0400775205799 0.00989433014752 0.0593783875894
-0.0401004785422 0.00998264654873 0.0594124018389
-0.0401271556799 0.0100719911043 0.0594519263753
-0.0401545157251 0.0101616184435 0.0594924626995
-0.0401825627271 0.010251533822 0.059534016811
-0.0395714069645 0.0101771714627 0.058628535553
-0.0396021311204 0.0102666946861 0.0586740561045
-0.0396339215629 0.0103566231849 0.0587211564538
-0.0396631301574 0.0104460027498 0.0587644315671
-0.0396865551636 0.0105339675819 0.0587991377833
-0.0397004127854 0.0106194697923 0.0588196690743
-0.0395901719412 0.0106715782349 0.0586563375239
-0.0395250613504 0.0107354901856 0.0585598704312
-0.038147475314 0.0104399442991 0.0565188550084
-0.0348667256547 0.00961395240203 0.0516581345338
-0.0348945821139 0.00969355238581 0.0516994063392
-0.03492291963 0.00977340182278 0.051741390873
-0.0349517415056 0.00985350461843 0.0517840930281
-0.0354987846847 0.0100808899032 0.0525945858291
-0.0355226727107 0.0101608871077 0.0526299780502
-0.0355523925756 0.0102426629363 0.0526740106559
-0.0355848994751 0.0103253699626 0.0527221724994
-0.0356163763375 0.0104079099846 0.0527688082521
-0.0356479368773 0.0104906043813 0.0528155679801
-0.035680706803 0.010573787268 0.0528641195202
-0.0357108254276 0.0106563140713 0.0529087429235
-0.0357351443725 0.010737222415 0.052944773589
-0.0383032689107 0.0115878028585 0.0567496769863
-0.0400775205799 0.0122071645017 0.0593783875894
-0.0401004785422 0.0122968057844 0.0594124018389
-0.0401271556799 0.0123876898513 0.0594519263753
-0.0401545157251 0.0124788961119 0.0594924626995
-0.0401825627271 0.0125704300553 0.059534016811
-0.0393395741705 0.0123877957421 0.0582850547863
-0.0396043746733 0.0125528058868 0.0586773801263
-0.0396298138734 0.0126425474564 0.0587150705488
-0.0396592011354 0.0127336615206 0.0587586103739
-0.039689261834 0.0128251143343 0.0588031479547
-0.0397200003693 0.0129169114922 0.0588486898104
-0.0400225463268 0.0130977871121 0.0592969383764
-0.0400431500168 0.0131870602681 0.0593274645635
-0.0400672105445 0.0132775638887 0.0593631123611
-0.0400919411522 0.0133683901223 0.0593997529414
-0.0401173454582 0.013459544326 0.0594373916652
-0.0399166743485 0.0134744880107 0.0591400796868
-0.0399467048857 0.013566956892 0.0591845725809
-0.039842105645 0.0136135482532 0.0590295995645
-0.0400875999219 0.0137800525722 0.059393321025
-0.04010943971 0.0138702269801 0.0594256786007
-0.0401348773156 0.0139617429881 0.0594633666608
-0.0401609932805 0.0140536012312 0.0595020597702
-0.0401877914549 0.0141458072588 0.0595417636332
-0.0401619831831 0.0142194982443 0.0595035263983
-0.0401825627271 0.0143096022303 0.059534016811
-0.0401609932805 0.0143846943 0.0595020597702
-0.0401877914549 0.0144771212557 0.0595417636332
-0.0401946610177 0.0145624385826 0.0595519414974
-0.0401825627271 0.0146408731208 0.059534016811
-0.040005413212 0.0146587797348 0.0592715541532
-0.0400333715531 0.0147515344617 0.0593129769056
-0.040054066367 0.0148417129932 0.0593436381008
-0.0400431500168 0.0149201984151 0.0593274645635
-0.0400672105445 0.0150117434178 0.0593631123611
