ply
format ascii 1.0
element vertex 937
property float x
property float y
property float z
end_header
-0.0134264262186 0.00491106650176 0.0176708060703
-0.0134264262186 0.00493564834579 0.0176708060703
-0.0134264262186 0.00496023018982 0.0176708060703
-0.0134264262186 0.00498481203385 0.0176708060703
-0.0134264262186 0.00500939387787 0.0176708060703
-0.0134264262186 0.0050339757219 0.0176708060703
-0.0134264262186 0.00505855756593 0.0176708060703
-0.0134264262186 0.00508313940996 0.0176708060703
-0.0134264262186 0.00510772125398 0.0176708060703
-0.0134776195625 0.00515187195076 0.0177381827227
-0.0136179677549 0.00523045311633 0.0179228979737
-0.0139049670209 0.00536614312752 0.0183006238324
-0.0143513619132 0.00556468912962 0.0188881336764
-0.0159755422504 0.00622370813909 0.0210257520787
-0.0183395306543 0.00717824131562 0.0241370476652
-0.0183678509158 0.00722295497389 0.0241743205658
-0.0163487552198 0.00645890004586 0.0215169456321
-0.0162259379363 0.0064400859868 0.0213553031845
-0.0144458376742 0.00576001120078 0.0190124752415
-0.0134264262186 0.00537812153829 0.0176708060703
-0.0134264262186 0.00540270338232 0.0176708060703
-0.0134264262186 0.00542728522634 0.0176708060703
-0.0134264262186 0.00545186707037 0.0176708060703
-0.0134264262186 0.0054764489144 0.0176708060703
-0.0134264262186 0.00550103075843 0.0176708060703
-0.0134264262186 0.00552561260245 0.0176708060703
-0.0134264262186 0.00555019444648 0.0176708060703
-0.0134264262186 0.00557477629051 0.0176708060703
-0.0134264262186 0.00559935813454 0.0176708060703
-0.0134264262186 0.00562393997856 0.0176708060703
-0.0139049670209 0.00584984480465 0.0183006238324
-0.021573635843 0.00911556587068 0.0283935225209
-0.0228565453424 0.00969948406975 0.0300819870908
-0.0228669284022 0.00974575629936 0.0300956524574
-0.0228773256251 0.00979207261085 0.0301093364642
-0.0228869572269 0.00983809788715 0.030122012821
-0.0214777602368 0.00927166865437 0.0282673385896
-0.0153459530698 0.00665274378475 0.0201971363225
-0.0134264262186 0.00584517657481 0.0176708060703
-0.013721885556 0.00599892718683 0.0180596664095
-0.0164442469806 0.00721919485442 0.0216426243764
-0.0214870108224 0.009472360053 0.0282795134826
-0.0231310326908 0.0102394622328 0.0304432457476
-0.0231540590147 0.0102920470757 0.0304735511838
-0.023177154242 0.0103447469884 0.0305039473054
-0.0232004099813 0.0103976034049 0.0305345546802
-0.02276141124 0.0102425325428 0.0299567790684
-0.0199520116376 0.00901484462188 0.0262592682983
-0.0156910346765 0.0071183509625 0.0206513055892
-0.0136896553273 0.00623547457573 0.0180172475177
-0.0134264262186 0.00614015870314 0.0176708060703
-0.0134264262186 0.00616474054717 0.0176708060703
-0.0134264262186 0.0061893223912 0.0176708060703
-0.0134264262186 0.00621390423523 0.0176708060703
-0.0134264262186 0.00623848607925 0.0176708060703
-0.0134264262186 0.00626306792328 0.0176708060703
-0.0134264262186 0.00628764976731 0.0176708060703
-0.0134264262186 0.00631223161134 0.0176708060703
-0.0135058132095 0.00637428139686 0.0177752889832
-0.0147183265378 0.00697349329809 0.01937110365
-0.0180737656794 0.00859637945685 0.0237872687104
-0.0208503060166 0.00995515220875 0.0274415327003
-0.020875883833 0.0100055852734 0.0274751962103
-0.0209015560126 0.0100561573966 0.0275089839137
-0.0209280331805 0.0101072122937 0.0275438310794
-0.0198519127757 0.00962384496458 0.0261275260499
-0.0168748200558 0.00821150010795 0.0222093107892
-0.0164627989905 0.0080411464683 0.0216670410726
-0.0166291126019 0.00815282676323 0.0218859299657
-0.0170999920141 0.00841499445528 0.0225056644088
-0.0171955753459 0.00849351411769 0.0226314636715
-0.0172155683508 0.00853490859816 0.0226577768919
-0.0179747991141 0.0089442193212 0.0236570167017
-0.0191755530739 0.00957681943512 0.0252373546126
-0.0224965843628 0.0112766254007 0.0296082347638
-0.0233898340158 0.0117671986287 0.0307838596944
-0.0234090289006 0.0118197139344 0.0308091224919
-0.02342827112 0.0118723235132 0.0308344475875
-0.02344731592 0.0119249031473 0.0308595128552
-0.0228759256775 0.0116761863702 0.0301074939634
-0.0221163263408 0.0113289682395 0.0291077690663
-0.0232020437921 0.0119276007021 0.0305367049735
-0.0232245323064 0.0119816822536 0.030566302587
-0.0232470863385 0.0120358800725 0.03059598643
-0.0232697430412 0.0120902138222 0.0306258053999
-0.0202701669584 0.0105688418231 0.0266779993055
-0.0167056898082 0.00874091322306 0.0219867148611
-0.0169109530954 0.00887927458178 0.0222568662537
-0.0185731675647 0.00978604263254 0.0244445421889
-0.0185693291401 0.00981801795481 0.0244394903564
-0.0185654930943 0.00984998048396 0.0244344416546
-0.0185605565161 0.00988134306082 0.0244279445188
-0.0171797905249 0.00917769906975 0.0226106889318
-0.0181738093372 0.00974199228756 0.0239189383033
-0.0181694942042 0.00977294489444 0.0239132590647
-0.0181651821435 0.00980388335867 0.0239075838696
-0.018159787629 0.00983421984323 0.0239004840339
-0.0180602227004 0.00981336727979 0.0237694445066
-0.017582944494 0.00958622086941 0.0231412884739
-0.017582944494 0.00961841269708 0.0231412884739
-0.017582944494 0.00965060452475 0.0231412884739
-0.0175780600536 0.00968010652757 0.0231348599577
-0.0175731796816 0.00970959289283 0.023128436796
-0.0175672493546 0.00973847934058 0.0231206317661
-0.0174856852866 0.00972527771293 0.0230132835555
-0.0174807213704 0.00975452152862 0.0230067504395
-0.0174757616794 0.00978374953331 0.0230002228843
-0.0174697579502 0.00981237296412 0.0229923212482
-0.0173787471938 0.00979307222637 0.0228725400495
-0.017372674257 0.00982145692798 0.0228645473278
-0.0172923686625 0.00980771683816 0.0227588554211
-0.0172923686625 0.00983937666353 0.0227588554211
-0.0172923686625 0.00987103648889 0.0227588554211
-0.0172923686625 0.00990269631425 0.0227588554211
-0.0172872579133 0.00993142004662 0.022752129055
-0.0237159197215 -0.00805689413426 0.0312702794082
-0.0237263835592 -0.00801692970967 0.0312840763484
-0.0237368612595 -0.00797693155789 0.031297891567
-0.0237470311496 -0.00793679209237 0.0313113009271
-0.0234529057369 -0.00779547112535 0.030923486162
-0.0233324154693 -0.00771262494017 0.0307646154802
-0.0238570874435 -0.00784229840554 0.0314564140453
-0.0240479056148 -0.00786091513439 0.0317080145568
-0.024066096625 -0.00782271915488 0.0317320000474
-0.0240843289794 -0.00778446980616 0.0317560400519
-0.0241021380998 -0.00774601755316 0.0317795220074
-0.0241343015376 -0.00771208687346 0.0318219306383
-0.0241491557232 -0.00767253880279 0.0318415164077
-0.0241640373699 -0.00763294491507 0.0318611383856
-0.0241785396057 -0.00759317728254 0.0318802600966
-0.0241561161967 -0.00754182782257 0.0318506940384
-0.0241718964136 -0.00750241817566 0.0318715008128
-0.0241877075967 -0.00746296019459 0.0318923484172
-0.0242031260474 -0.00742332375666 0.03191267819
-0.0213621236568 -0.00651277921699 0.028166716001
-0.0187490735297 -0.00568173553937 0.0247213169383
-0.0215047671751 -0.00647737900244 0.0283547965279
-0.0240200723446 -0.00719094771936 0.031671315405
-0.0240384905965 -0.00715236991218 0.031695600522
-0.0240569512821 -0.00711373708679 0.0317199415892
-0.0240749862803 -0.00707491144306 0.0317437213726
-0.0239848728974 -0.00700443646316 0.0316249036883
-0.0239974301589 -0.00696408721976 0.0316414608819
-0.0240096442108 -0.00692359294061 0.0316575655416
-0.0237657731264 -0.00680967702616 0.0313360128868
-0.0240726375948 -0.00685344944966 0.0317406245475
-0.0240905925482 -0.00681437391183 0.0317642987891
-0.0241085877376 -0.00677524381509 0.0317880260831
-0.0241261623381 -0.00673593027751 0.0318111988157
-0.0197678133193 -0.00548283786681 0.0260645614019
-0.01507645744 -0.00415398113818 0.019878842658
-0.0150881123014 -0.00412951755549 0.0198942100052
-0.015099794234 -0.00410501857736 0.0199096130467
-0.0151112622494 -0.00408041898194 0.0199247340309
-0.0165201034154 -0.00443053995753 0.0217823409641
-0.0176043596343 -0.00468903735952 0.0232119711582
-0.0176198344253 -0.00466084063387 0.0232323752178
-0.0176353500968 -0.00463259787886 0.0232528331797
-0.0189618724652 -0.00494627949222 0.0250018998652
-0.019820032803 -0.00513377984138 0.0261334146391
-0.019838695918 -0.00510222555255 0.0261580226166
-0.0198574118536 -0.00507061628728 0.02618270024
-0.0198757704874 -0.00503884778184 0.0262069067484
-0.0175487682844 -0.00441672473349 0.0231386719961
-0.0140559819895 -0.00351186850942 0.0185333096641
-0.0132829912873 -0.00329437396277 0.0175140940688
-0.0132829912873 -0.00327001012069 0.0175140940688
-0.0132829912873 -0.0032456462786 0.0175140940688
-0.0132829912873 -0.00322128243651 0.0175140940688
-0.0132829912873 -0.00319691859442 0.0175140940688
-0.0132829912873 -0.00317255475233 0.0175140940688
-0.0132829912873 -0.00314819091024 0.0175140940688
-0.0132829912873 -0.00312382706815 0.0175140940688
-0.0133401142761 -0.00311279234742 0.0175894127509
-0.0147719946315 -0.00341981339961 0.0194773976707
-0.0203563481164 -0.00467528987697 0.0268405653588
-0.0237415494669 -0.00540922988365 0.0313040731344
-0.0238784279794 -0.00539661789074 0.031484552297
-0.0238976632344 -0.00535713171663 0.0315099146614
-0.0239169450493 -0.0053175853313 0.0315353384167
-0.0239357932846 -0.0052778726072 0.031560190482
-0.0236934162193 -0.00518096937447 0.0312406077442
-0.0207288721985 -0.00449470010822 0.0273317515439
-0.0190086058787 -0.00408682404481 0.0250635195248
-0.0203339943882 -0.00433448385896 0.0268110911771
-0.0220248648962 -0.0046545189636 0.0290405637782
-0.0229160653014 -0.00480082356121 0.0302156430501
-0.0229272930423 -0.00476112217714 0.0302304472239
-0.0227039265695 -0.00467309365191 0.029935930625
-0.0233470456188 -0.00476264180566 0.0307839058501
-0.0238570874435 -0.0048229279487 0.0314564140453
-0.023868592104 -0.00478147362667 0.0314715833472
-0.0238801134243 -0.00473998040746 0.0314867746157
-0.0238913088368 -0.00469838083124 0.0315015361633
-0.0212537275162 -0.00414069948419 0.0280237918538
-0.0183712331185 -0.00354542861246 0.0242231209851
-0.0178441938946 -0.00341098627433 0.0235282011177
-0.0232889790266 -0.00440906092764 0.0307073429934
-0.0240604830096 -0.00451098971439 0.0317245982968
-0.0240740344425 -0.00446937349122 0.0317424663408
-0.0240876087988 -0.00442771176931 0.0317603646099
-0.0241008236357 -0.0043859348245 0.0317777888399
-0.0177528959476 -0.00319815871105 0.0234078215437
-0.0208862875988 -0.00372432480642 0.0275393093198
-0.0219969948145 -0.00388203265703 0.0290038160893
-0.0239891703814 -0.00418961081343 0.031630570073
-0.024007806854 -0.00414883015369 0.0316551429216
-0.0240264868286 -0.00410798856527 0.0316797731292
-0.0240447388546 -0.00406700606609 0.0317038390713
-0.0207288721985 -0.00346812831681 0.0273317515439
-0.0170427771217 -0.00282015108779 0.0224715047421
-0.0164718297759 -0.00269546080531 0.0217186904621
-0.0164718297759 -0.00266524795258 0.0217186904621
-0.0168568007602 -0.00269661976104 0.0222262883282
-0.0179622482365 -0.00284051404436 0.0236838599451
-0.0190144602223 -0.00297203216544 0.025071238684
-0.0211461672099 -0.00326643945756 0.0278819697836
-0.021447671214 -0.00327367304456 0.0282795134826
-0.0214735316629 -0.0032382332216 0.0283136113996
-0.0214443900673 -0.00319450504554 0.0282751871746
-0.0214644695058 -0.00315812579794 0.0283016626247
-0.0136051349128 -0.00197680579368 0.017938851839
-0.0132829912873 -0.00190563496369 0.0175140940688
-0.0156876750671 -0.00222184667824 0.020684754729
-0.0240942391492 -0.00336827504458 0.0317691069616
-0.0241119494573 -0.00332652440897 0.0317924586294
-0.0241296988764 -0.00328471412847 0.0318158618666
-0.024147030542 -0.00324278263406 0.0318387142811
-0.0237368612595 -0.00314416120619 0.031297891567
-0.0237470311496 -0.00310195117442 0.0313113009271
-0.0215660010944 -0.00277749791092 0.0284355356174
-0.0138277745118 -0.00175552408667 0.0182324100291
-0.0132829912873 -0.0016619965428 0.0175140940688
-0.0132829912873 -0.00163763270071 0.0175140940688
-0.0132829912873 -0.00161326885862 0.0175140940688
-0.0132829912873 -0.00158890501653 0.0175140940688
-0.0132829912873 -0.00156454117444 0.0175140940688
-0.0132829912873 -0.00154017733236 0.0175140940688
-0.0132829912873 -0.00151581349027 0.0175140940688
-0.0132829912873 -0.00149144964818 0.0175140940688
-0.0132829912873 -0.00146708580609 0.0175140940688
-0.0132829912873 -0.001442721964 0.0175140940688
-0.0132829912873 -0.00141835812191 0.0175140940688
-0.0132829912873 -0.00139399427982 0.0175140940688
-0.0132829912873 -0.00136963043773 0.0175140940688
-0.0132829912873 -0.00134526659564 0.0175140940688
-0.0132829912873 -0.00132090275355 0.0175140940688
-0.0132829912873 -0.00129653891146 0.0175140940688
-0.0132829912873 -0.00127217506937 0.0175140940688
-0.0132829912873 -0.00124781122729 0.0175140940688
-0.0132829912873 -0.0012234473852 0.0175140940688
-0.0132829912873 -0.00119908354311 0.0175140940688
-0.0132829912873 -0.00117471970102 0.0175140940688
-0.0132829912873 -0.00115035585893 0.0175140940688
-0.0132829912873 -0.00112599201684 0.0175140940688
-0.0132829912873 -0.00110162817475 0.0175140940688
-0.0155240286668 -0.00125901478215 0.0204689811591
-0.0227600182725 -0.00180411429069 0.0300098895204
-0.0239891703814 -0.00185754401025 0.031630570073
-0.024007806854 -0.00181495163721 0.0316551429216
-0.0240264868286 -0.00177229410651 0.0316797731292
-0.0240447388546 -0.00172953726736 0.0317038390713
-0.0236400804335 -0.00165706924563 0.0311702826231
-0.0226102738678 -0.00154341210886 0.0298124462236
-0.02415452411 -0.0016045204537 0.0318485948157
-0.0241708916025 -0.00156127312651 0.0318701759338
-0.0241872924128 -0.00151796784735 0.0318918009825
-0.0242032924447 -0.00147457798573 0.0319128975908
-0.0242031260474 -0.00143017414721 0.03191267819
-0.0239848728974 -0.00137328408758 0.0316249036883
-0.0239974301589 -0.00132998665876 0.0316414608819
-0.0240096442108 -0.00128662477268 0.0316575655416
-0.0236835878631 -0.00122571136315 0.0312276487087
-0.0236934162193 -0.00118276123199 0.0312406077442
-0.0218650737338 -0.00105138624993 0.0288298734759
-0.0159065125325 -0.000735691755404 0.0209732996713
-0.0142898507851 -0.000634708931697 0.0188416739472
-0.0139032202084 -0.00059203457821 0.0183318878498
-0.0132829912873 -0.0005412598067 0.0175140940688
-0.0132829912873 -0.000516895964611 0.0175140940688
-0.0143748185383 -0.000533016978809 0.0189537069366
-0.0156105066329 -0.00055020318006 0.0205830054177
-0.0156274660706 -0.000522136817843 0.0206053670365
-0.015099794234 -0.000476810272611 0.0199096130467
-0.0151112622494 -0.000449455119837 0.0199247340309
-0.0132829912873 -0.000370712912076 0.0175140940688
-0.0132829912873 -0.000346349069987 0.0175140940688
-0.0132829912873 -0.000321985227898 0.0175140940688
-0.0132829912873 -0.000297621385809 0.0175140940688
-0.0144530749713 -0.000297328491784 0.0190568908129
-0.0229627272926 -0.000430270416635 0.0302771685367
-0.0241447923491 -0.000408132981308 0.0318357631445
-0.0241599607296 -0.000364074854558 0.0318557631909
-0.0241751577335 -0.000319961462546 0.0318758009784
-0.024189970725 -0.000275787943339 0.0318953324319
-0.0205274988359 -0.000196380575235 0.0270662336391
-0.0230886831162 -0.000178533101342 0.0304432457476
-0.0231116672823 -0.000136319093868 0.0304735511838
-0.0230621316698 -9.37260454299e-05 0.0304082367259
-0.0229747553963 -5.12303356451e-05 0.0302930280172
-0.0230495998365 -9.11934032277e-06 0.0303917130601
-0.0230621316698 3.31765750917e-05 0.0304082367259
-0.0210508111635 6.88948246548e-05 0.027756239462
-0.0200860016505 0.000102579224075 0.0264841039765
-0.022044035578 0.000153012372573 0.0290658410005
-0.0220475074208 0.000193476307378 0.0290704187482
-0.0220509809045 0.000233952995795 0.0290749986594
-0.0220542848908 0.000274440317232 0.0290793550821
-0.0177452478201 0.000253367859235 0.023397737217
-0.0233324969954 0.00037593976545 0.0307647229753
-0.0233497064817 0.000419045396653 0.0307874142919
-0.0211161209107 0.000417691838074 0.0278423526748
-0.0209062206542 0.000451886334625 0.0275655917588
-0.0211813086343 0.000496683382417 0.0279283049952
-0.0241447923491 0.000610461218816 0.0318357631445
-0.0241599607296 0.000655159252679 0.0318557631909
-0.0241751577335 0.00069991375934 0.0318758009784
-0.024189970725 0.000744712192897 0.0318953324319
-0.024030557338 0.000783881666938 0.0316851402399
-0.024043107518 0.000828391249023 0.0317016880963
-0.023636444843 0.000857734210187 0.0311654889684
-0.0241569356238 0.000920931085453 0.0318517744819
-0.0241730127296 0.000965882457004 0.0318729727149
-0.0241891219775 0.0010108941495 0.0318942133282
-0.0242048343836 0.00105594762519 0.0319149306918
-0.0240975589444 0.00109546775039 0.0317734842289
-0.0241114661878 0.00114032554653 0.0317918214215
-0.0241250087275 0.00118521644318 0.0318096777394
-0.0240384905965 0.00122505769387 0.031695600522
-0.0240569512821 0.00127012407866 0.0317199415892
-0.0240749862803 0.00131523492949 0.0317437213726
-0.0233865805278 0.00132052277826 0.0308360340267
-0.0230211287109 0.00134211321442 0.0303541728736
-0.0219482779422 0.00131982470887 0.0289395811691
-0.0223236915963 0.00138334602731 0.0294345773572
-0.0233616308431 0.00149051487059 0.0308031369845
-0.0240341741943 0.00157750817623 0.0316899091929
-0.0240473904849 0.00162248368983 0.0317073353397
-0.0240606286022 0.00166750919912 0.0317247902659
-0.0240735125149 0.00171255807383 0.0317417781607
-0.0236934162193 0.00172897730655 0.0312406077442
-0.0230211287109 0.00172214420235 0.0303541728736
-0.0227601652932 0.00174436928489 0.0300100833724
-0.0229227151496 0.00179887247553 0.0302244111103
-0.0229291386733 0.00184143350098 0.0302328807536
-0.0229355676001 0.0018840185345 0.0302413575212
-0.0229417650085 0.00192660770956 0.0302495290234
-0.0241343015376 0.00207102222081 0.0318219306383
-0.0241491557232 0.00211659160177 0.0318415164077
-0.0241640373699 0.00216221793147 0.0318611383856
-0.0241785396057 0.00220786420747 0.0318802600966
-0.0225220996452 0.0020979166728 0.0296961853908
-0.0190140895977 0.00180602407067 0.0250707500023
-0.0176043596343 0.00170441319152 0.0232119711582
-0.0240479056148 0.00237237133352 0.0317080145568
-0.024066096625 0.00241830827064 0.0317320000474
-0.0240843289794 0.00246431617051 0.0317560400519
-0.0241021380998 0.00251034687271 0.0317795220074
-0.0228604774922 0.00242295329204 0.0301423485566
-0.0225030806429 0.0024263487035 0.0296711081633
-0.0227601652932 0.00249581533347 0.0300100833724
-0.0237657731264 0.00264967894559 0.0313360128868
-0.0241206069582 0.00273348220389 0.0318038738508
-0.0241351419493 0.00277939839391 0.0318230387509
-0.0241497032484 0.00282537098235 0.031842238339
-0.024163889892 0.00287135246821 0.0318609439307
-0.0241037249857 0.00290841455642 0.0317816143726
-0.0241179361819 0.0029543667586 0.0318003523376
-0.0241321725439 0.00300037422241 0.0318191234847
-0.0241460391549 0.00304638726161 0.031837407102
-0.0240479056148 0.00307811522785 0.0317080145568
-0.024066096625 0.00312458602412 0.0317320000474
-0.0240843289794 0.00317112899649 0.0317560400519
-0.0241021380998 0.00321768235035 0.0317795220074
-0.0235200227439 0.00318310956077 0.0310119823108
-0.0225220996452 0.0030893648201 0.0296961853908
-0.0214644695058 0.00298365971885 0.0283016626247
-0.0208402934149 0.00293512192689 0.0274786643607
-0.019665913055 0.00280579508908 0.0259302022973
-0.0194654836602 0.00281290307636 0.0256659290476
-0.0194654836602 0.0028486069295 0.0256659290476
-0.0194654836602 0.00288431078263 0.0256659290476
-0.0195417284925 0.00293145211299 0.025766460557
-0.0195657868286 0.00297094893138 0.0257981823246
-0.0196417118265 0.00301850478617 0.0258982921211
-0.019665913055 0.00305829547314 0.0259302022973
-0.019665913055 0.00309436695657 0.0259302022973
-0.019665913055 0.00313043844001 0.0259302022973
-0.0196417118265 0.00316261315903 0.0258982921211
-0.0205267295761 0.0033427648287 0.0270652193428
-0.0240726375948 0.00396436804668 0.0317406245475
-0.0240905925482 0.00401151222297 0.0317642987891
-0.0241085877376 0.0040587290395 0.0317880260831
-0.0241261623381 0.00410594029162 0.0318111988157
-0.0214592486452 0.00369142918379 0.0282947787353
-0.0193356314763 0.00336158932131 0.0254947143478
-0.0198730151731 0.0034914673254 0.026203273769
-0.0198721128193 0.00352775848972 0.0262020839835
-0.0198712105884 0.00356404636587 0.0262008943602
-0.0198702437405 0.00360031922419 0.026199619537
-0.0197633952505 0.00361720947285 0.0260587360218
-0.0197622855347 0.00365325461748 0.0260572728223
-0.018794919436 0.00350890128841 0.0247817663882
-0.0185871164641 0.00350419843179 0.024507770816
-0.0185847676739 0.0035378440502 0.0245046738529
-0.0185823950638 0.00357147647416 0.0245015454826
-0.0178504341576 0.00346353745327 0.0235364291252
-0.0177506309321 0.00347673098149 0.0234048350406
-0.017747645063 0.00350869912398 0.0234008980665
-0.017151766731 0.00342235432602 0.0226152113989
-0.0176544929142 0.00355504721712 0.0232780736618
-0.0190144602223 0.00386377748497 0.025071238684
-0.0195504432868 0.00400855003497 0.0257779513218
-0.0195491155959 0.00404413506214 0.0257762007144
-0.0195477881755 0.00407971527522 0.0257744504636
-0.0195464076164 0.00411527943099 0.0257726301476
-0.0191158168037 0.0040596857984 0.0252048809233
-0.0186884990098 0.00400321367946 0.0246414472901
-0.0163662688894 0.0035357941718 0.0215795046977
-0.016283037485 0.00354767929718 0.0214697611457
-0.0162793834934 0.00357674304612 0.0214649432284
-0.0162757319607 0.00360579393539 0.0214601285533
-0.0167596509996 0.00374374416762 0.0220981929309
-0.0183788398585 0.0041391467144 0.024233150741
-0.0184839767388 0.00419672842676 0.0243717774382
-0.0184815348585 0.00423007308653 0.0243685577327
-0.0206217274353 0.00475774725977 0.027190477382
-0.0219969948145 0.00511538961935 0.0290038160893
-0.0220178287245 0.00516061993312 0.0290312863368
-0.0220387219437 0.0052059406845 0.0290588347857
-0.0220591964138 0.005251238397 0.0290858310991
-0.0203756849187 0.00488784827883 0.0268660616169
-0.0203950769308 0.00492990908312 0.0268916306711
-0.0204140953892 0.00497195004481 0.0269167071816
-0.0196579567706 0.0048238457771 0.0259197116548
-0.0200878535021 0.00496618310584 0.0264865457084
-0.0203021365592 0.00505639729871 0.0267690855023
-0.0203021365592 0.0050936357519 0.0267690855023
-0.0203021365592 0.00513087420508 0.0267690855023
-0.0203018741612 0.00516804586222 0.0267687395212
-0.0203016117734 0.00520521655938 0.0267683935536
-0.0203012680761 0.00524236529756 0.0267679403765
-0.0200860016505 0.00522361939448 0.0264841039765
-0.0198702437405 0.00520395508399 0.026199619537
-0.0197622855347 0.00521192941654 0.0260572728223
-0.0182662204197 0.00485087465776 0.0240846580256
-0.0189078081625 0.00505593906871 0.0249306141688
-0.0191213348867 0.00514810862582 0.025212156711
-0.0191195082388 0.00518268609088 0.0252097482111
-0.0191176821142 0.00521725699786 0.0252073404012
-0.0191158168037 0.00525181044004 0.0252048809233
-0.0186952845421 0.00517056606942 0.0246503942546
-0.0190144602223 0.00529371725878 0.025071238684
-0.0190125203562 0.00532805021243 0.0250686809018
-0.0190105810836 0.00536237621725 0.0250661239023
-0.0198730151731 0.00564209714886 0.026203273769
-0.0198721128193 0.00567829066172 0.0262020839835
-0.0198712105884 0.0057144808997 0.0262008943602
-0.0198702437405 0.0057506491271 0.026199619537
-0.0193340448911 0.00563093053357 0.0254926223792
-0.0193324586965 0.00566592842036 0.0254905309254
-0.0193308265295 0.00570090693048 0.0254883788555
-0.0184839767388 0.00548506370205 0.0243717774382
-0.0189078081625 0.0056455153411 0.0249306141688
-0.0198730151731 0.00597015932532 0.026203273769
-0.0200878535021 0.00607154547501 0.0264865457084
-0.0200872604377 0.00610821054603 0.026485763732
-0.0200866674258 0.00614487345751 0.0264849818249
-0.0200860016505 0.00618151180046 0.0264841039765
-0.0196543275208 0.00608471335749 0.0259149263605
-0.0183712331185 0.00572118148875 0.0242231209851
-0.0177536131781 0.00556140579826 0.0234087672375
-0.0181697120315 0.00572507792204 0.0239574083006
-0.0181670165373 0.00575755078843 0.0239538541961
-0.0181643222424 0.00579001414889 0.0239503016729
-0.018161614865 0.00582246343138 0.0239467319
-0.0179537034791 0.00578873968711 0.0236725933802
-0.0174536715264 0.0056595301758 0.0230132835555
-0.0195504432868 0.006375289392 0.0257779513218
-0.0195491155959 0.00641071369145 0.0257762007144
-0.0195477881755 0.00644613320954 0.0257744504636
-0.0195464076164 0.00648153023747 0.0257726301476
-0.0193308265295 0.00644550105777 0.0254883788555
-0.017148445008 0.00574928083582 0.0226108315896
-0.0171451252141 0.00577961564401 0.0226064543239
-0.0181405357215 0.00614844178961 0.0239189383033
-0.0197654934638 0.00673544912428 0.0260615025903
-0.0197644442736 0.00677134380449 0.0260601191959
-0.0197633952505 0.00680723469337 0.0260587360218
-0.0197622855347 0.00684310071789 0.0260572728223
-0.0193308265295 0.0067291559634 0.0254883788555
-0.0197654934638 0.00691671980012 0.0260615025903
-0.0217863690077 0.007663864104 0.0287260985093
-0.0233499399341 0.00825671546879 0.0307877221072
-0.0239552356803 0.00851469164238 0.0315858259687
-0.0239740811668 0.00856536369926 0.0316106744096
-0.0239929712004 0.00861612088676 0.0316355815873
-0.0240114312164 0.00866679215852 0.0316599217717
-0.0167541581765 0.00607805064014 0.0220909504494
-0.0132829912873 0.004843149295 0.0175140940688
-0.0132829912873 0.00486751313709 0.0175140940688
-0.0132829912873 0.00489187697918 0.0175140940688
-0.0132829912873 0.00491624082127 0.0175140940688
-0.0132829912873 0.00494060466336 0.0175140940688
-0.0132829912873 0.00496496850545 0.0175140940688
-0.0132829912873 0.00498933234754 0.0175140940688
-0.0132829912873 0.00501369618963 0.0175140940688
-0.0132829912873 0.00503806003172 0.0175140940688
-0.0132829912873 0.00506242387381 0.0175140940688
-0.0132829912873 0.0050867877159 0.0175140940688
-0.0132829912873 0.00511115155798 0.0175140940688
-0.0132829912873 0.00513551540007 0.0175140940688
-0.0132829912873 0.00515987924216 0.0175140940688
-0.0140676552885 0.00549049103952 0.018548701322
-0.0161413016284 0.0063294248745 0.021282877403
-0.0161592912084 0.00636611864772 0.0213065973008
-0.0157128363317 0.00621905386289 0.0207179307469
-0.0157252007438 0.0062527910046 0.0207342336618
-0.0140559819895 0.00561484340656 0.0185333096641
-0.0132829912873 0.00533042613679 0.0175140940688
-0.0132829912873 0.00535478997888 0.0175140940688
-0.0132829912873 0.00537915382096 0.0175140940688
-0.0132829912873 0.00540351766305 0.0175140940688
-0.0132829912873 0.00542788150514 0.0175140940688
-0.0132829912873 0.00545224534723 0.0175140940688
-0.0132829912873 0.00547660918932 0.0175140940688
-0.0132829912873 0.00550097303141 0.0175140940688
-0.0132829912873 0.0055253368735 0.0175140940688
-0.0132829912873 0.00554970071559 0.0175140940688
-0.0132829912873 0.00557406455768 0.0175140940688
-0.0137697914169 0.00580360173848 0.0181559572665
-0.0215341376368 0.00911556587068 0.0283935225209
-0.0237657731264 0.0101038258173 0.0313360128868
-0.023776584112 0.0101520333521 0.0313502675539
-0.0237874098647 0.0102002868784 0.0313645416919
-0.0237979216988 0.0102484449309 0.0313784019171
-0.0217663680882 0.00941349163677 0.0286997265893
-0.015196995368 0.00660025207656 0.0200377761817
-0.0144971881626 0.00632290767454 0.0191150556167
-0.0177062183161 0.00775499409797 0.0233462754347
-0.0238356426069 0.0104832875224 0.0314281382693
-0.0238550583499 0.0105355821395 0.0314537386136
-0.0238745216167 0.0105879690578 0.0314794016196
-0.0238935498094 0.0106402336292 0.031504490965
-0.0239723353281 0.0107192886394 0.0316083724594
-0.0239848728974 0.0107688882223 0.0316249036883
-0.0239974301589 0.0108185426759 0.0316414608819
-0.0240096442108 0.0108680878394 0.0316575655416
-0.0220591964138 0.0100256689779 0.0290858310991
-0.0156355249287 0.00713485784208 0.0206159929261
-0.0132829912873 0.00608570524155 0.0175140940688
-0.0132829912873 0.00611006908364 0.0175140940688
-0.0132829912873 0.00613443292573 0.0175140940688
-0.0132829912873 0.00615879676782 0.0175140940688
-0.0132829912873 0.00618316060991 0.0175140940688
-0.0132829912873 0.006207524452 0.0175140940688
-0.0132829912873 0.00623188829409 0.0175140940688
-0.0132829912873 0.00625625213617 0.0175140940688
-0.0144170199218 0.00681682037735 0.0190093509542
-0.0192827707694 0.00915286910542 0.0254250156352
-0.0232597742723 0.0110832794884 0.0306688354914
-0.0241126846996 0.0115339190109 0.0317934280724
-0.0241301420192 0.0115865292744 0.0318164461661
-0.0241476373105 0.0116392218813 0.0318395143268
-0.0241647178732 0.0116917780075 0.0318620356532
-0.024147030542 0.0117275110367 0.0318387142811
-0.0238784279794 0.0116408567127 0.031484552297
-0.0239552356803 0.0117222398797 0.0315858259687
-0.0240726375948 0.0118238436154 0.0317406245475
-0.0241488845571 0.0119055883193 0.0318411588655
-0.0241655355881 0.0119581221593 0.0318631138392
-0.0241822211101 0.0120107342132 0.0318851142905
-0.0241985020937 0.0120632058101 0.0319065813435
-0.0242032924447 0.0121099878561 0.0319128975908
-0.0241785396057 0.0121419515096 0.0318802600966
-0.0241460391549 0.0121699194614 0.031837407102
-0.0240096442108 0.0121452134399 0.0316575655416
-0.0235168166866 0.0119390528357 0.0310077550108
-0.0230984963396 0.0117690469074 0.0304561848299
-0.0230984963396 0.0118114144814 0.0304561848299
-0.0232240126713 0.0119181950466 0.0306216825549
-0.0232317413099 0.0119647732352 0.0306318730385
-0.0232394776697 0.0120113837665 0.0306420737026
-0.0232469568211 0.0120578892674 0.0306519352285
-0.0226057984866 0.011766792774 0.0298065452752
-0.0193308265295 0.0100975579678 0.0254883788555
-0.0173415922676 0.00909027926835 0.0228655030865
-0.0179622482365 0.0094485671618 0.0236838599451
-0.0195504432868 0.010319854987 0.0257779513218
-0.0195491155959 0.010355011407 0.0257762007144
-0.0195477881755 0.0103901631001 0.0257744504636
-0.0195464076164 0.0104252815816 0.0257726301476
-0.0182662204197 0.00977598445689 0.0240846580256
-0.0192284023521 0.0103262081281 0.025353328953
-0.019226693431 0.010360556249 0.0253510756801
-0.0192249849655 0.0103948983471 0.0253488230078
-0.0192232339678 0.0104292111028 0.0253465142555
-0.0190086058787 0.0103476344326 0.0250635195248
-0.0186952845421 0.0102113641645 0.0246503942546
-0.01869303106 0.0102444203227 0.0246474229587
-0.0186907783926 0.0102774686622 0.024644452737
-0.0186884990098 0.010310493999 0.0246414472901
-0.0184839767388 0.0102315620847 0.0243717774382
-0.0184839767388 0.0102654656446 0.0243717774382
-0.0184815348585 0.0102980085759 0.0243685577327
-0.0184790939458 0.0103305430903 0.0243653393029
-0.0184766320229 0.0103630568663 0.0243620931704
-0.0183763096771 0.010340494777 0.0242298146073
-0.0183737805404 0.0103727730483 0.024226479851
-0.0183712331185 0.0104050316854 0.0242231209851
-0.0182740778763 0.0103835238159 0.0240950183602
-0.0182740778763 0.0104170423764 0.0240950183602
-0.0182740778763 0.010450560937 0.0240950183602
-0.0182714631904 0.0104825794178 0.0240915708043
-0.0182688496266 0.0105145889526 0.024088124728
-0.023706425817 -0.00806846810945 0.0313152001223
-0.0237163557541 -0.00802826696106 0.0313283171552
-0.0237262981797 -0.00798803352306 0.0313414506849
-0.0237359725278 -0.00794767378276 0.0313542300953
-0.0234505623378 -0.00780901560889 0.0309772151339
-0.0232494071247 -0.0076993083693 0.030711497484
-0.0238133284514 -0.00784229840554 0.0314564140453
-0.0240037966214 -0.00786091513439 0.0317080145568
-0.0240219542654 -0.00782271915488 0.0317320000474
-0.0240548010476 -0.00778921294983 0.0317753892773
-0.0240681001965 -0.007749292206 0.0317929568985
-0.0241137465888 -0.00771967810229 0.0318532538795
-0.0241292068913 -0.00768028805623 0.0318736762946
-0.0241446969688 -0.00764085061354 0.0318941380411
-0.024159921019 -0.00760127254388 0.0319142483768
-0.024111808722 -0.00754182782257 0.0318506940384
-0.0241275599946 -0.00750241817566 0.0318715008128
-0.0241155661832 -0.0074543743438 0.0318556574879
-0.0241292611904 -0.00741426806902 0.0318737480214
-0.0215635786215 -0.00658627845698 0.0284845883179
-0.0233124236764 -0.00707759896196 0.0307947397215
-0.0239262747896 -0.00721999622736 0.031605611449
-0.0240728180111 -0.00721998130562 0.0317991889348
-0.0240864402773 -0.00717980607258 0.0318171833806
-0.0241000856953 -0.00713958763408 0.0318352084089
-0.0241134601369 -0.00709923926826 0.0318528754886
-0.0239412482639 -0.00700454434753 0.0316253907843
-0.0241149725114 -0.00701105794925 0.0318548732722
-0.0241301403687 -0.0069711266102 0.0318749093793
-0.0241453368829 -0.00693114775298 0.0318949833411
-0.0241602662341 -0.00689103684523 0.0319147043915
-0.0240464052579 -0.00681437391183 0.0317642987891
-0.0221485832255 -0.00623586104576 0.0292573550094
-0.0212580395895 -0.00594606796846 0.0280809839953
-0.0191257168425 -0.00531449269512 0.0252642745485
-0.0150488039981 -0.00415398113818 0.019878842658
-0.0150604374819 -0.00412951755549 0.0198942100052
-0.0139337716327 -0.00379498537317 0.018405931392
-0.0136250120164 -0.00368585486891 0.0179980728118
-0.0164898020185 -0.00443053995753 0.0217823409641
-0.01757206948 -0.00468903735952 0.0232119711582
-0.017587515887 -0.00466084063387 0.0232323752178
-0.0159430737852 -0.00419575281463 0.0210601357624
-0.0189270923425 -0.00494627949222 0.0250018998652
-0.0197836786311 -0.00513377984138 0.0261334146391
-0.0198023075139 -0.00510222555255 0.0261580226166
-0.0174861984596 -0.0044733288623 0.0230985391205
-0.0142140041201 -0.00361011488808 0.0187761068242
-0.0137551504972 -0.00346829764025 0.0181699803192
-0.0129286455707 -0.00323614076934 0.0170782017703
-0.0129286455707 -0.00321238329668 0.0170782017703
-0.0129286455707 -0.00318862582401 0.0170782017703
-0.0129286455707 -0.00316486835135 0.0170782017703
-0.0129286455707 -0.00314111087868 0.0170782017703
-0.0129286455707 -0.00311735340602 0.0170782017703
-0.0129286455707 -0.00309359593335 0.0170782017703
-0.0129286455707 -0.00306983846069 0.0170782017703
-0.0129286455707 -0.00304608098802 0.0170782017703
-0.0133624275856 -0.00312372853703 0.0176512097266
-0.0167174522029 -0.003877311372 0.0220830573663
-0.0221811110127 -0.00510374878577 0.02930032286
-0.0240594136388 -0.00549172445268 0.0317814823179
-0.0240766702973 -0.0054514204972 0.0318042776443
-0.02409323306 -0.00541089728437 0.0318261563633
-0.0241098300513 -0.00537032082481 0.0318480802969
-0.02412616673 -0.00532962586379 0.0318696603683
-0.0236296641455 -0.00517652374648 0.0312138011546
-0.0209683828509 -0.00455498870362 0.0276983595202
-0.01904138618 -0.00410139459775 0.0251528772593
-0.0198365638202 -0.00423621949786 0.026203273769
-0.0207947852264 -0.00440264137308 0.0274690442959
-0.0212103621957 -0.00445165089547 0.0280180041458
-0.0212118639494 -0.00441298750248 0.0280199879
-0.0211073806243 -0.00435246385457 0.0278819697836
-0.0228806699957 -0.00467608121615 0.0302244111103
-0.0238133284514 -0.0048229279487 0.0314564140453
-0.0238248120098 -0.00478147362667 0.0314715833472
-0.0212118639494 -0.00421809458999 0.0280199879
-0.0203318190778 -0.00400573145162 0.0268574853159
-0.0192558698422 -0.00375836595853 0.0254362012347
-0.0181942774193 -0.00351773054451 0.0240338819046
-0.017677489825 -0.00338532956767 0.0233512270387
-0.0187669214043 -0.00355947548293 0.0247903207337
-0.0240163509465 -0.00451098971439 0.0317245982968
-0.0240298775233 -0.00446937349122 0.0317424663408
-0.0230910171109 -0.00425232094853 0.0305022708795
-0.023097607368 -0.00421109078133 0.0305109763344
-0.0231039445017 -0.0041697907102 0.0305193474238
-0.0227921214309 -0.00407163056804 0.0301074421479
-0.0241092961259 -0.00426263045608 0.0318473750036
-0.0241250424717 -0.004221082687 0.0318681752699
-0.0241408197107 -0.00417948239598 0.0318890163449
-0.0241563321783 -0.00413777876781 0.0319095076679
-0.0239871456852 -0.00406472013294 0.0316860193642
-0.0227046361095 -0.00380567195298 0.0299918776859
-0.0189344544942 -0.00313893360278 0.0250116249606
-0.0170739543603 -0.00279912705575 0.0225539818528
-0.0166942829145 -0.00270620606024 0.0220524517023
-0.0175857739177 -0.00281840476809 0.0232300741491
-0.0187291398065 -0.00296723128057 0.0247404128184
-0.0194764725822 -0.0030498405062 0.0257276082568
-0.0215797963513 -0.00333954740964 0.0285060112628
-0.0215815888637 -0.00330016682397 0.0285083790969
-0.0215833818228 -0.00326077971801 0.0285107475211
-0.0215849642167 -0.00322135459774 0.0285128377975
-0.0204160596583 -0.00300939026891 0.0269687636105
-0.0139520628524 -0.00203093908133 0.0184300933306
-0.01854307373 -0.0026651574441 0.0244946272889
-0.0236680821735 -0.00335827216509 0.0312645497678
-0.0240500451703 -0.00336827504458 0.0317691069616
-0.0240677229938 -0.00332652440897 0.0317924586294
-0.0237251772813 -0.00323558238837 0.0313399700248
-0.0236828643059 -0.00318629259365 0.0312840763484
-0.0234425840955 -0.00311088757562 0.0309666762084
-0.0234505623378 -0.00306885392876 0.0309772151339
-0.0196634903557 -0.0025371260696 0.0259746509383
-0.0133897193542 -0.00170303392089 0.0176872610149
-0.0129286455707 -0.0016206326281 0.0170782017703
-0.0129286455707 -0.00159687515543 0.0170782017703
-0.0129286455707 -0.00157311768277 0.0170782017703
-0.0129286455707 -0.0015493602101 0.0170782017703
-0.0129286455707 -0.00152560273744 0.0170782017703
-0.0129286455707 -0.00150184526477 0.0170782017703
-0.0129286455707 -0.00147808779211 0.0170782017703
-0.0129286455707 -0.00145433031944 0.0170782017703
-0.0129286455707 -0.00143057284678 0.0170782017703
-0.0129286455707 -0.00140681537411 0.0170782017703
-0.0129286455707 -0.00138305790145 0.0170782017703
-0.0129286455707 -0.00135930042878 0.0170782017703
-0.0129286455707 -0.00133554295611 0.0170782017703
-0.0129286455707 -0.00131178548345 0.0170782017703
-0.0129286455707 -0.00128802801078 0.0170782017703
-0.0129286455707 -0.00126427053812 0.0170782017703
-0.0129286455707 -0.00124051306545 0.0170782017703
-0.0129286455707 -0.00121675559279 0.0170782017703
-0.0129286455707 -0.00119299812012 0.0170782017703
-0.0129286455707 -0.00116924064746 0.0170782017703
-0.0129286455707 -0.00114548317479 0.0170782017703
-0.0129286455707 -0.00112172570213 0.0170782017703
-0.0129286455707 -0.00109796822946 0.0170782017703
-0.0129286455707 -0.0010742107568 0.0170782017703
-0.0147971134883 -0.00120226642261 0.0195463699882
-0.0225062373484 -0.00178727612967 0.0297298011942
-0.023945169121 -0.00185754401025 0.031630570073
-0.0239637714103 -0.00181495163721 0.0316551429216
-0.0236871610042 -0.00175047475967 0.0312897521078
-0.0237062860478 -0.00170832580248 0.031315015493
-0.0237251772813 -0.00166609013833 0.0313399700248
-0.0237251772813 -0.00162249313138 0.0313399700248
-0.0241102195556 -0.0016045204537 0.0318485948157
-0.0241265570266 -0.00156127312651 0.0318701759338
-0.0241337097852 -0.0015173882747 0.0318796244298
-0.0241495040462 -0.00147400458357 0.03190048799
-0.0241134601369 -0.00142749407514 0.0318528754886
-0.0241233757572 -0.00138375234039 0.0318659736095
-0.0241394448595 -0.00134031582932 0.0318872002238
-0.0241135633616 -0.00129456808893 0.0318530118441
-0.024127844364 -0.00125099784161 0.0318718764529
-0.0241418555353 -0.00120736161466 0.031890384626
-0.0194480634918 -0.000936882292605 0.0256900810329
-0.0159898910941 -0.000740907077162 0.0211219794755
-0.0160026445949 -0.000712091818778 0.0211388263184
-0.0149453120498 -0.000637578962741 0.0197421341092
-0.0129708091264 -0.000529510137416 0.0171338980695
-0.0129286455707 -0.000504031412827 0.0170782017703
-0.0138481535203 -0.000514431865177 0.0182928334351
-0.0150488039981 -0.000531380244255 0.019878842658
-0.0150604374819 -0.000504116208519 0.0198942100052
-0.0145219215237 -0.000459405277644 0.0191828528765
-0.0145325677264 -0.000433037259002 0.0191969160663
-0.0129708091264 -0.000362665475221 0.0171338980695
-0.0129286455707 -0.000337729104169 0.0170782017703
-0.0129286455707 -0.000313971631504 0.0170782017703
-0.0129286455707 -0.000290214158838 0.0170782017703
-0.0129879027716 -0.000267677964713 0.0171564780622
-0.0153063601875 -0.000287334164963 0.020219063646
-0.0241005056447 -0.000408132981308 0.0318357631445
-0.0241156462032 -0.000364074854558 0.0318557631909
-0.0237163557541 -0.000314465954373 0.0313283171552
-0.0237262981797 -0.000270998718829 0.0313414506849
-0.0237359725278 -0.000227492373867 0.0313542300953
-0.0210037525288 -0.000162709832868 0.02774508139
-0.0238517516376 -0.000140942838165 0.0315071694723
-0.0238701368886 -9.71880963953e-05 0.0315314556223
-0.02388856472 -5.33658808608e-05 0.0315557980193
-0.0239067486039 -9.47584325603e-06 0.0315798181718
-0.0234425840955 3.37858543996e-05 0.0309666762084
-0.0234505623378 7.68897316896e-05 0.0309772151339
-0.0186233021993 9.52839881627e-05 0.0246006057518
-0.0235597520338 0.000163833791299 0.0311214501699
-0.0235791199831 0.000207297089809 0.0311470344234
-0.023598535777 0.000250832077335 0.0311726818776
-0.0236177231931 0.000294435574045 0.0311980276544
-0.0140768508781 0.000201359573832 0.0185949331098
-0.019461717922 0.000314148898593 0.0257081179658
-0.0202122661189 0.000363405902076 0.0266995608417
-0.0208479776879 0.000413145572267 0.0275393093198
-0.0208678741818 0.000451886334625 0.0275655917588
-0.0197531994977 0.000464046617924 0.0260931529747
-0.0241005056447 0.000610461218816 0.0318357631445
-0.0241156462032 0.000655159252679 0.0318557631909
-0.0239607503036 0.000694981026977 0.0316511521657
-0.0239736048788 0.000739407387175 0.0316681325235
-0.0232592876681 0.000760116910175 0.0307245492699
-0.0231814148735 0.000800169813727 0.0306216825549
-0.0235930905565 0.000857734210187 0.0311654889684
-0.0241126266461 0.000920931085453 0.0318517744819
-0.024128674263 0.000965882457004 0.0318729727149
-0.0239900903873 0.00100441868472 0.0316899091929
-0.0240993076876 0.00105327590485 0.0318341806931
-0.0241135633616 0.00109820965736 0.0318530118441
-0.024127844364 0.00114319700194 0.0318718764529
-0.0241418555353 0.00118822355095 0.031890384626
-0.0239943988723 0.00122505769387 0.031695600522
-0.0233271657457 0.00123385707598 0.0308142133805
-0.0237182047327 0.00129812471833 0.0313307595788
-0.0239179599282 0.00135300881198 0.0315946278638
-0.023929595597 0.00139763966986 0.0316099980971
-0.0239412482639 0.00144231431481 0.0316253907843
-0.023952629624 0.00148701494214 0.0316404250865
-0.024033630021 0.00153620738227 0.0317474232338
-0.0240466023135 0.00158122421165 0.0317645590913
-0.0240595956343 0.00162629013778 0.0317817227263
-0.0240723173497 0.00167138495848 0.031798527582
-0.0229656648422 0.00163674939275 0.0303366857588
-0.0229500463198 0.00167780890854 0.0303160543419
-0.0227882848339 0.00170785840083 0.0301023741632
-0.0227882848339 0.00174973378917 0.0301023741632
-0.0228806699957 0.00179887247553 0.0302244111103
-0.0228870817373 0.00184143350098 0.0302328807536
-0.0226998488389 0.00186808212155 0.0299855539011
-0.0228004745244 0.00191826089167 0.0301184762363
-0.0240900340757 0.00207102222081 0.0318219306383
-0.0241048610155 0.00211659160177 0.0318415164077
-0.0240548010476 0.00215639867111 0.0317753892773
-0.0240681001965 0.00220181803327 0.0317929568985
-0.0240814214279 0.00224728833278 0.0318105536897
-0.0240944713035 0.00229278176838 0.0318277920313
-0.0240412400345 0.00233189418595 0.0317574757444
-0.0240037966214 0.00237237133352 0.0317080145568
-0.0240219542654 0.00241830827064 0.0317320000474
-0.0228327235062 0.00234054456047 0.0301610757966
-0.0228528556594 0.00238460231672 0.0301876695317
-0.0227882848339 0.00241974000267 0.0301023741632
-0.0228534399945 0.00246865352256 0.030188441414
-0.02322794668 0.00255179144727 0.0306831491314
-0.0237221816243 0.00264967894559 0.0313360128868
-0.024076364615 0.00273348220389 0.0318038738508
-0.0240908729459 0.00277939839391 0.0318230387509
-0.0239051443217 0.00280189832898 0.031577698982
-0.0239283649467 0.00284859037682 0.0316083724594
-0.0240595136076 0.00290841455642 0.0317816143726
-0.0240736987375 0.0029543667586 0.0318003523376
-0.0240219721247 0.00299216116989 0.0317320236389
-0.0240346342208 0.00303790401239 0.0317487497398
-0.0240470245918 0.00308365854569 0.0317651169034
-0.0240470245918 0.00312784697411 0.0317651169034
-0.0240766702973 0.00317594595816 0.0318042776443
-0.02409323306 0.00322240408732 0.0318261563633
-0.0241098300513 0.00326892772829 0.0318480802969
-0.02412616673 0.0033154765932 0.0318696603683
-0.0240412400345 0.00334798355868 0.0317574757444
-0.0223338941898 0.0031512589502 0.0295021430671
-0.0194480634918 0.00277981260514 0.0256900810329
-0.0192653055113 0.00278909167669 0.0254486653602
-0.0192474020507 0.00282186846176 0.0254250156352
-0.0192653055113 0.00285989491228 0.0254486653602
-0.0193545040213 0.00290870177486 0.025566492873
-0.0193725557522 0.00294701338782 0.0255903384569
-0.0193725557522 0.00298261208694 0.0255903384569
-0.0193725557522 0.00301821078606 0.0255903384569
-0.0193725557522 0.00305380948519 0.0255903384569
-0.0193725557522 0.00308940818431 0.0255903384569
-0.0193545040213 0.00312209494017 0.025566492873
-0.0202122661189 0.00329760316341 0.0266995608417
-0.0240284832376 0.00396436804668 0.0317406245475
-0.0240464052579 0.00401151222297 0.0317642987891
-0.0239634345497 0.00404170556049 0.0316546979428
-0.023975425905 0.00408778489866 0.0316705380233
-0.0239871456852 0.00413386150475 0.0316860193642
-0.0203318190778 0.00354127661928 0.0268574853159
-0.0198365638202 0.0034914673254 0.026203273769
-0.0198356631215 0.00352775848972 0.0262020839835
-0.0197292393286 0.0035450852295 0.0260615025903
-0.0197281920629 0.00358114926033 0.0260601191959
-0.0187647721723 0.00344074683801 0.0247874816879
-0.0193692273067 0.0035871735452 0.0255859417192
-0.0202271111745 0.0037832223284 0.0267191705411
-0.0202263298417 0.00382024377086 0.0267181384331
-0.0202255485995 0.00385726235906 0.0267171064447
-0.0202245938708 0.00389424467126 0.0267158452879
-0.0197941875718 0.00384774344011 0.0261472965117
-0.0184040177177 0.00361133067026 0.0243109400942
-0.017882816457 0.0035419190659 0.023622454959
-0.0173838055003 0.00347502780758 0.0229632822902
-0.0187291398065 0.00377837689742 0.0247404128184
-0.0212768100357 0.00433143640643 0.0281057789721
-0.0218744018868 0.00449328749449 0.0288951728922
-0.0218769278598 0.00453400705563 0.0288985095974
-0.0218794547082 0.00457473608316 0.0289018474587
-0.0218817625955 0.00461542821274 0.0289048960816
-0.0192580424334 0.00409740621802 0.0254390711371
-0.0192558698422 0.00413232824913 0.0254362012347
-0.0169827060475 0.00367571225476 0.022433446636
-0.0169790588758 0.00370612331369 0.0224286288743
-0.0169753114158 0.00373649889382 0.0224236786358
-0.0164949300732 0.00366107119103 0.0217891149106
-0.0168884094735 0.00377943832744 0.0223088847931
-0.0189416513769 0.00427373792 0.0250211317426
-0.0193692273067 0.00440580295017 0.0255859417192
-0.0193673217148 0.00444095857765 0.0255834245117
-0.0205839027842 0.00475774725977 0.027190477382
-0.0223635072454 0.00521017847287 0.0295412606789
-0.0223838343142 0.00525604638494 0.0295681118893
-0.0224042169121 0.00530200214349 0.0295950364514
-0.022424418691 0.00534798968805 0.029621722159
-0.0204848393509 0.00492306288345 0.0270596187168
-0.0205038940844 0.00496531988146 0.0270847892253
-0.020522820721 0.00500761565289 0.0271097905232
-0.0199058164203 0.00489364378897 0.0262947535665
-0.0203338474079 0.0050362360347 0.0268601646554
-0.0204403263069 0.00510016927707 0.0270008188416
